ply
format ascii 1.0
element vertex 400
property float x
property float y
property float z
end_header
1012.000000 375.000000 1219.000000
4095.000000 2307.000000 51.000000
3478.000000 13.000000 863.000000
132.000000 2583.000000 635.000000
2117.000000 2000.000000 574.000000
2318.000000 721.000000 1012.000000
72.000000 1294.000000 975.000000
3408.000000 1291.000000 535.000000
1190.000000 1454.000000 924.000000
3044.000000 2525.000000 300.000000
1192.000000 2533.000000 492.000000
107.000000 191.000000 1250.000000
1790.000000 123.000000 1194.000000
2642.000000 1418.000000 763.000000
547.000000 1932.000000 859.000000
3881.000000 651.000000 596.000000
2718.000000 58.000000 1006.000000
1579.000000 828.000000 1045.000000
3104.000000 652.000000 772.000000
3985.000000 1722.000000 462.000000
692.000000 996.000000 1128.000000
1956.000000 1402.000000 905.000000
3045.000000 1857.000000 430.000000
1476.000000 1982.000000 681.000000
2401.000000 2523.000000 336.000000
1790.000000 2477.000000 368.000000
3512.000000 2139.000000 150.000000
168.000000 756.000000 1158.000000
646.000000 2377.000000 507.000000
32.000000 2058.000000 737.000000
3924.000000 1181.000000 410.000000
681.000000 1438.000000 871.000000
2585.000000 2058.000000 393.000000
977.000000 2020.000000 620.000000
2254.000000 230.000000 1049.000000
592.000000 117.000000 1211.000000
2710.000000 937.000000 815.000000
3508.000000 1758.000000 500.000000
3905.000000 216.000000 797.000000
1143.000000 997.000000 1008.000000
1925.000000 564.000000 1195.000000
3492.000000 872.000000 688.000000
2706.000000 504.000000 936.000000
573.000000 564.000000 1177.000000
1458.000000 423.000000 1221.000000
2314.000000 1139.000000 865.000000
3527.000000 437.000000 746.000000
3732.000000 2509.000000 219.000000
3102.000000 235.000000 900.000000
1578.000000 1568.000000 765.000000
2997.000000 1207.000000 635.000000
2265.000000 1614.000000 694.000000
199.000000 1685.000000 861.000000
1975.000000 965.000000 1041.000000
1516.000000 1213.000000 945.000000
3881.000000 2003.000000 190.000000
955.000000 659.000000 951.000000
2920.000000 2164.000000 227.000000
1456.000000 2256.000000 407.000000
2684.000000 1706.000000 512.000000
930.000000 1731.000000 868.000000
421.000000 1158.000000 917.000000
1910.000000 1737.000000 740.000000
292.000000 2272.000000 517.000000
1780.000000 2147.000000 550.000000
3141.000000 1538.000000 578.000000
951.000000 1213.000000 789.000000
1222.000000 693.000000 1190.000000
2111.000000 2327.000000 427.000000
3722.000000 1473.000000 457.000000
3384.000000 2461.000000 220.000000
1263.000000 132.000000 1221.000000
2718.000000 2438.000000 246.000000
1261.000000 1766.000000 823.000000
3179.000000 940.000000 649.000000
274.000000 465.000000 1243.000000
3223.000000 2071.000000 272.000000
2049.000000 283.000000 1287.000000
435.000000 849.000000 1013.000000
3762.000000 938.000000 533.000000
2415.000000 1869.000000 581.000000
964.000000 2315.000000 495.000000
691.000000 2121.000000 667.000000
435.000000 2569.000000 609.000000
892.000000 102.000000 1171.000000
2547.000000 294.000000 1085.000000
382.000000 1447.000000 850.000000
1245.000000 2148.000000 589.000000
197.000000 1041.000000 1074.000000
324.000000 2038.000000 696.000000
3628.000000 1925.000000 300.000000
1798.000000 1174.000000 967.000000
2872.000000 1555.000000 665.000000
1526.000000 2524.000000 461.000000
2358.000000 2242.000000 321.000000
3823.000000 2266.000000 111.000000
2594.000000 753.000000 993.000000
3153.000000 2341.000000 122.000000
1664.000000 571.000000 1103.000000
38.000000 2324.000000 654.000000
2183.000000 480.000000 1142.000000
3655.000000 1188.000000 469.000000
3983.000000 1460.000000 373.000000
739.000000 349.000000 1224.000000
3255.000000 422.000000 767.000000
2566.000000 1157.000000 743.000000
2195.000000 1363.000000 767.000000
2856.000000 717.000000 864.000000
731.000000 1184.000000 940.000000
538.000000 1665.000000 846.000000
1532.000000 174.000000 1284.000000
848.000000 2548.000000 549.000000
2851.000000 285.000000 970.000000
725.000000 743.000000 1055.000000
3648.000000 181.000000 750.000000
3312.000000 696.000000 613.000000
1730.000000 1916.000000 672.000000
3793.000000 418.000000 677.000000
3648.000000 666.000000 711.000000
932.000000 1472.000000 925.000000
2800.000000 1931.000000 463.000000
3576.000000 2377.000000 62.000000
2034.000000 90.000000 1117.000000
2447.000000 62.000000 1022.000000
196.000000 1940.000000 896.000000
3255.000000 1768.000000 548.000000
358.000000 222.000000 1207.000000
2067.000000 1170.000000 920.000000
2169.000000 929.000000 880.000000
1261.000000 1210.000000 936.000000
1719.000000 1363.000000 817.000000
2457.000000 510.000000 987.000000
3391.000000 1535.000000 468.000000
2073.000000 733.000000 1078.000000
1787.000000 365.000000 1269.000000
1472.000000 682.000000 1227.000000
1395.000000 994.000000 995.000000
796.000000 1935.000000 801.000000
1821.000000 771.000000 1088.000000
907.000000 914.000000 1028.000000
3228.000000 19.000000 886.000000
2935.000000 935.000000 705.000000
2465.000000 940.000000 888.000000
2942.000000 486.000000 857.000000
2510.000000 1616.000000 677.000000
2966.000000 77.000000 1028.000000
3349.000000 1876.000000 349.000000
3209.000000 1323.000000 673.000000
3746.000000 1764.000000 451.000000
1432.000000 1439.000000 909.000000
3405.000000 241.000000 824.000000
104.000000 1471.000000 807.000000
2328.000000 2082.000000 497.000000
3380.000000 1059.000000 591.000000
857.000000 533.000000 1127.000000
1191.000000 1930.000000 665.000000
2425.000000 1338.000000 807.000000
1229.000000 461.000000 1207.000000
496.000000 2241.000000 623.000000
367.000000 647.000000 1111.000000
2796.000000 1133.000000 723.000000
2011.000000 2534.000000 395.000000
3301.000000 823.000000 804.000000
2060.000000 1571.000000 787.000000
2123.000000 1792.000000 668.000000
2583.000000 2267.000000 306.000000
1784.000000 944.000000 923.000000
1476.000000 1767.000000 753.000000
374.000000 1809.000000 928.000000
1562.000000 2170.000000 592.000000
1632.000000 1066.000000 1068.000000
1668.000000 2310.000000 449.000000
1247.000000 2326.000000 428.000000
4039.000000 1875.000000 277.000000
518.000000 366.000000 1258.000000
4063.000000 2125.000000 173.000000
1356.000000 783.000000 1039.000000
2904.000000 1719.000000 525.000000
1896.000000 2309.000000 462.000000
2926.000000 2414.000000 155.000000
1824.000000 1554.000000 819.000000
560.000000 1306.000000 993.000000
2837.000000 1345.000000 700.000000
3336.000000 2252.000000 201.000000
1069.000000 567.000000 1110.000000
722.000000 1761.000000 898.000000
1913.000000 1947.000000 572.000000
1080.000000 810.000000 1088.000000
139.000000 2414.000000 495.000000
3710.000000 2123.000000 212.000000
497.000000 1039.000000 1069.000000
1058.000000 1180.000000 962.000000
1178.000000 283.000000 1110.000000
186.000000 2190.000000 706.000000
1362.000000 570.000000 1096.000000
3567.000000 999.000000 528.000000
1708.000000 1715.000000 708.000000
1113.000000 1640.000000 885.000000
2215.000000 2447.000000 299.000000
3789.000000 49.000000 815.000000
3190.000000 1135.000000 591.000000
2761.000000 2154.000000 353.000000
268.000000 1293.000000 922.000000
1015.000000 1861.000000 739.000000
2613.000000 1893.000000 538.000000
1589.000000 306.000000 1122.000000
1982.000000 2147.000000 545.000000
3031.000000 2026.000000 322.000000
3560.000000 1360.000000 421.000000
574.000000 835.000000 1157.000000
2992.000000 1404.000000 586.000000
1060.000000 181.000000 1246.000000
107.000000 570.000000 1200.000000
3799.000000 2436.000000 13.000000
2312.000000 995.000000 1000.000000
629.000000 2560.000000 576.000000
1391.000000 1622.000000 853.000000
855.000000 2171.000000 573.000000
521.000000 2027.000000 687.000000
2361.000000 385.000000 1101.000000
1007.000000 2497.000000 448.000000
893.000000 1080.000000 932.000000
3470.000000 602.000000 667.000000
1316.000000 307.000000 1280.000000
3428.000000 2039.000000 289.000000
797.000000 1590.000000 860.000000
3859.000000 1866.000000 340.000000
3638.000000 808.000000 587.000000
1350.000000 2481.000000 405.000000
3574.000000 1587.000000 442.000000
2472.000000 659.000000 1099.000000
3032.000000 1032.000000 578.000000
431.000000 2396.000000 539.000000
3837.000000 1344.000000 384.000000
2697.000000 1619.000000 676.000000
2159.000000 2160.000000 491.000000
3848.000000 1604.000000 424.000000
292.000000 890.000000 1122.000000
3098.000000 2210.000000 241.000000
878.000000 1296.000000 936.000000
97.000000 1800.000000 962.000000
3082.000000 1712.000000 574.000000
364.000000 1621.000000 908.000000
1051.000000 1344.000000 868.000000
2380.000000 1473.000000 694.000000
123.000000 371.000000 1280.000000
2919.000000 753.000000 698.000000
2428.000000 172.000000 1164.000000
2582.000000 2521.000000 331.000000
3204.000000 2464.000000 245.000000
3106.000000 414.000000 869.000000
2714.000000 226.000000 1069.000000
822.000000 2405.000000 435.000000
287.000000 2504.000000 535.000000
1081.000000 2172.000000 525.000000
3077.000000 823.000000 736.000000
2365.000000 1698.000000 575.000000
373.000000 1968.000000 851.000000
1403.000000 2087.000000 539.000000
1321.000000 1811.000000 659.000000
3559.000000 2480.000000 235.000000
3891.000000 819.000000 546.000000
807.000000 1998.000000 587.000000
3181.000000 1901.000000 309.000000
1756.000000 350.000000 1098.000000
94.000000 904.000000 1104.000000
346.000000 1002.000000 991.000000
2832.000000 2308.000000 269.000000
3904.000000 1019.000000 475.000000
2848.000000 121.000000 909.000000
2872.000000 2509.000000 289.000000
2851.000000 2010.000000 318.000000
932.000000 1525.000000 761.000000
2295.000000 551.000000 1032.000000
72.000000 1590.000000 926.000000
2685.000000 678.000000 869.000000
3672.000000 349.000000 776.000000
2249.000000 1897.000000 610.000000
742.000000 187.000000 1170.000000
3065.000000 69.000000 888.000000
3360.000000 116.000000 931.000000
3288.000000 1410.000000 521.000000
2036.000000 438.000000 1218.000000
1584.000000 1366.000000 922.000000
892.000000 754.000000 1080.000000
157.000000 1150.000000 952.000000
3247.000000 582.000000 717.000000
3509.000000 1155.000000 546.000000
886.000000 266.000000 1209.000000
2104.000000 242.000000 1121.000000
419.000000 497.000000 1167.000000
2165.000000 743.000000 940.000000
524.000000 694.000000 1084.000000
3293.000000 1610.000000 582.000000
531.000000 1505.000000 894.000000
2542.000000 1770.000000 623.000000
2483.000000 2394.000000 271.000000
230.000000 1518.000000 902.000000
891.000000 1366.000000 787.000000
2499.000000 2010.000000 525.000000
2284.000000 69.000000 1053.000000
2678.000000 386.000000 1046.000000
3310.000000 2380.000000 97.000000
3254.000000 289.000000 865.000000
806.000000 383.000000 1079.000000
576.000000 1141.000000 968.000000
344.000000 2201.000000 668.000000
1723.000000 900.000000 1067.000000
492.000000 210.000000 1299.000000
13.000000 2470.000000 588.000000
769.000000 990.000000 985.000000
3021.000000 521.000000 720.000000
1839.000000 1808.000000 613.000000
2471.000000 1099.000000 860.000000
3937.000000 2340.000000 24.000000
2703.000000 1269.000000 754.000000
1918.000000 1246.000000 887.000000
2325.000000 863.000000 906.000000
1608.000000 759.000000 1187.000000
3327.000000 1203.000000 642.000000
3634.000000 7.000000 827.000000
2110.000000 878.000000 1021.000000
1620.000000 2024.000000 626.000000
3674.000000 2246.000000 57.000000
708.000000 2239.000000 558.000000
1403.000000 202.000000 1190.000000
3644.000000 513.000000 667.000000
235.000000 319.000000 1179.000000
1907.000000 233.000000 1236.000000
1041.000000 811.000000 934.000000
194.000000 2335.000000 627.000000
2260.000000 2272.000000 442.000000
2583.000000 143.000000 1028.000000
2444.000000 2140.000000 406.000000
1780.000000 497.000000 1181.000000
1322.000000 2018.000000 657.000000
1668.000000 1233.000000 900.000000
2591.000000 585.000000 1022.000000
1609.000000 109.000000 1163.000000
1222.000000 868.000000 1051.000000
1512.000000 534.000000 1124.000000
707.000000 486.000000 1154.000000
2085.000000 1317.000000 869.000000
3104.000000 1252.000000 530.000000
2451.000000 816.000000 986.000000
1583.000000 1868.000000 700.000000
2786.000000 632.000000 979.000000
2602.000000 833.000000 859.000000
2201.000000 1101.000000 966.000000
2069.000000 588.000000 1136.000000
2844.000000 441.000000 973.000000
1939.000000 1107.000000 987.000000
793.000000 1422.000000 978.000000
3616.000000 1850.000000 436.000000
412.000000 1339.000000 958.000000
1132.000000 91.000000 1142.000000
3918.000000 2144.000000 121.000000
3475.000000 2292.000000 143.000000
3428.000000 746.000000 751.000000
3538.000000 172.000000 862.000000
1040.000000 1094.000000 831.000000
1105.000000 2373.000000 466.000000
1637.000000 440.000000 1180.000000
2834.000000 850.000000 789.000000
1122.000000 2068.000000 636.000000
1386.000000 1299.000000 952.000000
3769.000000 1090.000000 499.000000
3503.000000 740.000000 611.000000
1642.000000 2450.000000 395.000000
2988.000000 335.000000 924.000000
1682.000000 716.000000 1059.000000
2874.000000 1047.000000 622.000000
185.000000 2013.000000 763.000000
3384.000000 489.000000 723.000000
986.000000 963.000000 906.000000
2165.000000 347.000000 1212.000000
526.000000 1796.000000 922.000000
3209.000000 792.000000 668.000000
3365.000000 946.000000 744.000000
3764.000000 196.000000 847.000000
1112.000000 1760.000000 794.000000
1352.000000 2234.000000 528.000000
2610.000000 1048.000000 835.000000
2911.000000 1883.000000 370.000000
246.000000 132.000000 1245.000000
1894.000000 2059.000000 464.000000
3757.000000 1993.000000 271.000000
1389.000000 1142.000000 974.000000
2957.000000 635.000000 790.000000
1249.000000 1580.000000 873.000000
3009.000000 1592.000000 621.000000
620.000000 261.000000 1237.000000
3573.000000 2054.000000 254.000000
1973.000000 1847.000000 662.000000
1958.000000 825.000000 1083.000000
3749.000000 714.000000 612.000000
2053.000000 1019.000000 886.000000
3497.000000 1876.000000 345.000000
2567.000000 1298.000000 802.000000
669.000000 1981.000000 705.000000
