ply
format ascii 1.0
element vertex 400
property float x
property float y
property float z
end_header
3585.000000 1255.000000 589.000000
0.000000 2749.000000 1961.000000
2199.000000 1316.000000 3083.000000
2247.000000 2946.000000 1435.000000
3041.000000 18.000000 2050.000000
1153.000000 2064.000000 262.000000
785.000000 1176.000000 1945.000000
509.000000 3409.000000 657.000000
2850.000000 2487.000000 143.000000
2618.000000 1500.000000 1678.000000
1366.000000 2354.000000 2273.000000
1145.000000 3360.000000 1667.000000
2070.000000 2158.000000 761.000000
2393.000000 2328.000000 2242.000000
3359.000000 816.000000 1488.000000
1461.000000 2952.000000 808.000000
2831.000000 904.000000 2440.000000
1778.000000 1460.000000 2200.000000
3031.000000 2119.000000 1037.000000
643.000000 2090.000000 1693.000000
3725.000000 2170.000000 360.000000
486.000000 2997.000000 1359.000000
1755.000000 3017.000000 2059.000000
4087.000000 1366.000000 11.000000
2099.000000 2390.000000 31.000000
822.000000 2739.000000 465.000000
1492.000000 1242.000000 2856.000000
1252.000000 1701.000000 1764.000000
3303.000000 1477.000000 1212.000000
863.000000 2775.000000 1986.000000
2678.000000 249.000000 2675.000000
2591.000000 2335.000000 1550.000000
2461.000000 1498.000000 2364.000000
1545.000000 2795.000000 1458.000000
3594.000000 661.000000 885.000000
2864.000000 613.000000 1859.000000
992.000000 3299.000000 1055.000000
3273.000000 2534.000000 610.000000
1867.000000 2054.000000 2110.000000
1528.000000 2353.000000 617.000000
3173.000000 247.000000 1513.000000
3468.000000 1824.000000 763.000000
1553.000000 3344.000000 1242.000000
1891.000000 2574.000000 2424.000000
2636.000000 2202.000000 610.000000
2537.000000 879.000000 2931.000000
3043.000000 1151.000000 1818.000000
2250.000000 2787.000000 1966.000000
591.000000 1552.000000 1582.000000
1249.000000 1309.000000 2206.000000
1836.000000 2554.000000 1060.000000
2379.000000 2484.000000 1070.000000
742.000000 2282.000000 2185.000000
1670.000000 2111.000000 164.000000
2607.000000 1966.000000 1925.000000
2908.000000 1899.000000 1498.000000
3758.000000 1653.000000 296.000000
3214.000000 1010.000000 1005.000000
1953.000000 1271.000000 2641.000000
441.000000 2526.000000 1851.000000
1256.000000 3077.000000 2071.000000
684.000000 3188.000000 1774.000000
1455.000000 2138.000000 1845.000000
2368.000000 1071.000000 2537.000000
2873.000000 394.000000 2273.000000
2456.000000 2024.000000 1061.000000
3272.000000 413.000000 1952.000000
1165.000000 2606.000000 737.000000
2251.000000 1898.000000 2301.000000
1265.000000 2551.000000 1873.000000
1563.000000 3187.000000 1684.000000
2717.000000 1211.000000 2125.000000
2435.000000 2480.000000 317.000000
1060.000000 1996.000000 2048.000000
928.000000 2988.000000 1421.000000
766.000000 3065.000000 757.000000
3178.000000 2105.000000 592.000000
1872.000000 2961.000000 1212.000000
1000.000000 1426.000000 1527.000000
358.000000 3222.000000 1015.000000
3844.000000 1120.000000 274.000000
1980.000000 1619.000000 1856.000000
138.000000 2930.000000 1598.000000
3006.000000 1445.000000 1514.000000
2530.000000 2734.000000 1659.000000
1957.000000 3065.000000 1702.000000
1536.000000 1810.000000 2080.000000
1625.000000 2632.000000 2116.000000
1170.000000 2712.000000 2250.000000
2760.000000 2386.000000 1182.000000
2925.000000 2424.000000 789.000000
1989.000000 2222.000000 375.000000
1055.000000 2424.000000 402.000000
2304.000000 1433.000000 2721.000000
2685.000000 1598.000000 2055.000000
2754.000000 632.000000 2714.000000
3002.000000 1745.000000 1149.000000
273.000000 2179.000000 1785.000000
1519.000000 1375.000000 2480.000000
2393.000000 2438.000000 1870.000000
884.000000 1787.000000 1678.000000
3181.000000 1136.000000 1368.000000
2981.000000 774.000000 1527.000000
1473.000000 2000.000000 481.000000
3464.000000 1466.000000 873.000000
2091.000000 1516.000000 2393.000000
2070.000000 2271.000000 1115.000000
469.000000 2886.000000 1760.000000
3527.000000 893.000000 1166.000000
3374.000000 2283.000000 335.000000
1107.000000 1338.000000 1868.000000
1132.000000 3112.000000 771.000000
1333.000000 3072.000000 1131.000000
2912.000000 902.000000 2079.000000
899.000000 3129.000000 2058.000000
1027.000000 2142.000000 1720.000000
2172.000000 2772.000000 1129.000000
1533.000000 2605.000000 873.000000
3630.000000 902.000000 552.000000
842.000000 3327.000000 1484.000000
1446.000000 1479.000000 1962.000000
2345.000000 2585.000000 1402.000000
1068.000000 2365.000000 2094.000000
2197.000000 2614.000000 2265.000000
3428.000000 480.000000 1536.000000
675.000000 3202.000000 1154.000000
1252.000000 1169.000000 2618.000000
2104.000000 2303.000000 2055.000000
1787.000000 1086.000000 2935.000000
2961.000000 156.000000 2506.000000
2317.000000 2332.000000 602.000000
3087.000000 2630.000000 341.000000
3511.000000 1034.000000 841.000000
2834.000000 1738.000000 1785.000000
2760.000000 1623.000000 1368.000000
3714.000000 1887.000000 541.000000
1729.000000 2334.000000 2230.000000
1940.000000 2737.000000 2079.000000
2875.000000 2389.000000 461.000000
1951.000000 1745.000000 2197.000000
3600.000000 1582.000000 582.000000
1874.000000 2419.000000 766.000000
2430.000000 2570.000000 4.000000
783.000000 2852.000000 1680.000000
1789.000000 2073.000000 621.000000
449.000000 1831.000000 1676.000000
2868.000000 2214.000000 1434.000000
2378.000000 1152.000000 2864.000000
3150.000000 548.000000 1686.000000
3184.000000 1863.000000 911.000000
1246.000000 2215.000000 555.000000
871.000000 2574.000000 2234.000000
2553.000000 1840.000000 2216.000000
131.000000 2465.000000 1892.000000
2660.000000 2228.000000 926.000000
2427.000000 1203.000000 2255.000000
1637.000000 2386.000000 1917.000000
751.000000 2004.000000 1977.000000
2661.000000 2600.000000 1394.000000
1285.000000 3292.000000 1394.000000
561.000000 1301.000000 1765.000000
1679.000000 2845.000000 1001.000000
3482.000000 2090.000000 551.000000
2749.000000 2120.000000 1701.000000
945.000000 2818.000000 734.000000
2804.000000 1340.000000 1860.000000
1284.000000 3369.000000 1099.000000
2620.000000 946.000000 2650.000000
2517.000000 1365.000000 1962.000000
3529.000000 620.000000 1289.000000
2406.000000 2106.000000 777.000000
3878.000000 1925.000000 263.000000
1828.000000 2879.000000 1505.000000
1389.000000 2809.000000 2071.000000
2390.000000 2067.000000 2102.000000
3914.000000 1406.000000 254.000000
3098.000000 870.000000 1272.000000
639.000000 2595.000000 2055.000000
3592.000000 1417.000000 342.000000
2997.000000 865.000000 1802.000000
2072.000000 2363.000000 2342.000000
1583.000000 2118.000000 2104.000000
2847.000000 681.000000 2256.000000
1468.000000 3069.000000 1386.000000
756.000000 3318.000000 893.000000
3191.000000 2317.000000 785.000000
2204.000000 2919.000000 1717.000000
1402.000000 2732.000000 638.000000
2587.000000 2248.000000 1954.000000
1721.000000 1621.000000 1973.000000
1326.000000 3219.000000 1836.000000
1300.000000 2137.000000 2104.000000
593.000000 2308.000000 1946.000000
3331.000000 1268.000000 1026.000000
1781.000000 1285.000000 2420.000000
347.000000 2767.000000 1982.000000
3057.000000 295.000000 2086.000000
1096.000000 3140.000000 1260.000000
1301.000000 1921.000000 1925.000000
2623.000000 1084.000000 2409.000000
3346.000000 1667.000000 1018.000000
830.000000 1312.000000 1709.000000
2029.000000 1500.000000 2098.000000
943.000000 3267.000000 1825.000000
2033.000000 2950.000000 1937.000000
1506.000000 3068.000000 1969.000000
3352.000000 1217.000000 723.000000
222.000000 3049.000000 1370.000000
3086.000000 1014.000000 1588.000000
1687.000000 1244.000000 2671.000000
2632.000000 2505.000000 1755.000000
2092.000000 2467.000000 915.000000
1666.000000 2263.000000 830.000000
1508.000000 1437.000000 2219.000000
2195.000000 2364.000000 281.000000
1870.000000 2255.000000 58.000000
3011.000000 1985.000000 1268.000000
2276.000000 2265.000000 947.000000
2766.000000 473.000000 2502.000000
3920.000000 1615.000000 90.000000
1638.000000 2496.000000 2419.000000
2076.000000 1392.000000 2849.000000
3237.000000 793.000000 1722.000000
2188.000000 2147.000000 2248.000000
1067.000000 2897.000000 2095.000000
2620.000000 2605.000000 180.000000
3471.000000 2502.000000 437.000000
2173.000000 2479.000000 1232.000000
602.000000 3174.000000 588.000000
2390.000000 2548.000000 2105.000000
1742.000000 2754.000000 1297.000000
2635.000000 2334.000000 387.000000
2525.000000 2284.000000 1138.000000
1263.000000 2297.000000 1907.000000
2197.000000 1663.000000 2212.000000
2443.000000 1317.000000 2542.000000
677.000000 3135.000000 1455.000000
1000.000000 1218.000000 2074.000000
1577.000000 3011.000000 1163.000000
3087.000000 1571.000000 1311.000000
1347.000000 3162.000000 893.000000
725.000000 2962.000000 529.000000
3023.000000 2544.000000 592.000000
764.000000 2986.000000 1897.000000
2292.000000 923.000000 2917.000000
2111.000000 1962.000000 2101.000000
1752.000000 3118.000000 1831.000000
2788.000000 520.000000 2077.000000
1043.000000 1572.000000 1722.000000
1076.000000 1874.000000 1807.000000
3273.000000 304.000000 1731.000000
3016.000000 133.000000 2267.000000
643.000000 2744.000000 1860.000000
180.000000 2798.000000 1803.000000
3126.000000 1254.000000 1608.000000
1662.000000 2012.000000 1899.000000
3325.000000 2298.000000 575.000000
3312.000000 982.000000 1233.000000
1766.000000 2631.000000 811.000000
1301.000000 2409.000000 689.000000
3772.000000 1283.000000 438.000000
1010.000000 2609.000000 551.000000
1773.000000 2114.000000 382.000000
2439.000000 2801.000000 1447.000000
2883.000000 2302.000000 992.000000
3207.000000 1371.000000 1405.000000
2014.000000 2990.000000 1404.000000
2510.000000 2428.000000 1328.000000
3124.000000 2077.000000 822.000000
372.000000 2902.000000 1544.000000
3046.000000 488.000000 1945.000000
2675.000000 1895.000000 1706.000000
1141.000000 1771.000000 2013.000000
2088.000000 1467.000000 2624.000000
827.000000 1593.000000 1556.000000
2905.000000 1130.000000 2008.000000
1640.000000 3017.000000 1540.000000
2954.000000 1876.000000 958.000000
524.000000 3295.000000 865.000000
2289.000000 1549.000000 2514.000000
1458.000000 2516.000000 2000.000000
1985.000000 2870.000000 1029.000000
2397.000000 1721.000000 2342.000000
2805.000000 1031.000000 2244.000000
1361.000000 3281.000000 1614.000000
1835.000000 2144.000000 2322.000000
897.000000 2167.000000 2055.000000
2358.000000 2581.000000 1690.000000
602.000000 2942.000000 1566.000000
477.000000 2281.000000 1748.000000
1762.000000 1847.000000 2112.000000
867.000000 3161.000000 1280.000000
3633.000000 879.000000 960.000000
1559.000000 2943.000000 2155.000000
673.000000 1869.000000 1640.000000
1067.000000 3291.000000 1463.000000
2905.000000 2211.000000 1207.000000
2390.000000 2079.000000 2330.000000
1301.000000 2762.000000 840.000000
1128.000000 3221.000000 1949.000000
1435.000000 2873.000000 1274.000000
3314.000000 1987.000000 730.000000
2841.000000 1455.000000 1668.000000
2626.000000 1453.000000 2217.000000
1082.000000 2506.000000 2274.000000
2781.000000 2422.000000 1466.000000
1165.000000 1553.000000 1910.000000
369.000000 3125.000000 1217.000000
3088.000000 237.000000 1872.000000
812.000000 2452.000000 2056.000000
2720.000000 755.000000 2899.000000
2119.000000 2241.000000 558.000000
2789.000000 694.000000 2503.000000
1373.000000 2038.000000 287.000000
1803.000000 2667.000000 2243.000000
2498.000000 1629.000000 2168.000000
1031.000000 2269.000000 1899.000000
1446.000000 2299.000000 2030.000000
3750.000000 1064.000000 464.000000
437.000000 2036.000000 1759.000000
1320.000000 1289.000000 2448.000000
3609.000000 699.000000 1100.000000
2422.000000 2697.000000 1865.000000
1425.000000 1838.000000 1765.000000
3264.000000 2691.000000 458.000000
3963.000000 1233.000000 131.000000
1607.000000 2185.000000 503.000000
861.000000 2002.000000 1697.000000
1063.000000 3303.000000 850.000000
2089.000000 2958.000000 1202.000000
896.000000 3156.000000 911.000000
1940.000000 2280.000000 2193.000000
1442.000000 2924.000000 1020.000000
1967.000000 1947.000000 2266.000000
1126.000000 2565.000000 2035.000000
1434.000000 1276.000000 2651.000000
1814.000000 2375.000000 2423.000000
2321.000000 2828.000000 1271.000000
1638.000000 2647.000000 1067.000000
2283.000000 2460.000000 113.000000
2424.000000 994.000000 2730.000000
2675.000000 1765.000000 1925.000000
1948.000000 1388.000000 2303.000000
2751.000000 2310.000000 752.000000
1740.000000 2807.000000 2089.000000
2630.000000 2292.000000 1753.000000
3257.000000 1271.000000 1226.000000
1443.000000 1639.000000 1827.000000
2900.000000 695.000000 2048.000000
1160.000000 2246.000000 367.000000
2746.000000 430.000000 2761.000000
1262.000000 1361.000000 2006.000000
1114.000000 2437.000000 600.000000
1426.000000 2181.000000 670.000000
3498.000000 1422.000000 674.000000
3338.000000 648.000000 1615.000000
3185.000000 1646.000000 1145.000000
2301.000000 1339.000000 2904.000000
3413.000000 954.000000 1006.000000
3624.000000 1070.000000 670.000000
302.000000 2380.000000 1812.000000
1488.000000 3270.000000 1421.000000
2943.000000 1770.000000 1344.000000
2977.000000 661.000000 1696.000000
1623.000000 2454.000000 771.000000
1589.000000 2795.000000 824.000000
2003.000000 2674.000000 2277.000000
260.000000 2620.000000 1873.000000
2429.000000 2456.000000 1540.000000
1210.000000 2747.000000 2001.000000
2681.000000 1576.000000 1854.000000
2010.000000 2466.000000 1114.000000
1101.000000 2171.000000 2139.000000
3507.000000 1625.000000 757.000000
2016.000000 2299.000000 190.000000
2878.000000 1722.000000 1590.000000
2960.000000 1299.000000 1711.000000
3159.000000 837.000000 1460.000000
2780.000000 2052.000000 1514.000000
1439.000000 3243.000000 1110.000000
2476.000000 2372.000000 2065.000000
576.000000 2415.000000 2113.000000
2361.000000 2834.000000 1629.000000
2774.000000 821.000000 2654.000000
2134.000000 2726.000000 2115.000000
2469.000000 2379.000000 484.000000
2237.000000 2412.000000 2155.000000
2870.000000 201.000000 2675.000000
1656.000000 1434.000000 2352.000000
803.000000 2635.000000 1828.000000
1593.000000 2049.000000 334.000000
2951.000000 2492.000000 312.000000
1238.000000 1911.000000 2110.000000
924.000000 2791.000000 1801.000000
833.000000 3250.000000 1664.000000
739.000000 1420.000000 1574.000000
3540.000000 2211.000000 410.000000
1192.000000 3239.000000 982.000000
2661.000000 2604.000000 1590.000000
2107.000000 1668.000000 2039.000000
