ply
format ascii 1.0
element vertex 400
property float x
property float y
property float z
end_header
1468.000000 2285.000000 3595.000000
1586.000000 3149.000000 1.000000
142.000000 0.000000 1490.000000
4095.000000 1853.000000 3170.000000
2063.000000 1108.000000 924.000000
312.000000 2552.000000 1718.000000
1950.000000 414.000000 2868.000000
1858.000000 2835.000000 2118.000000
896.000000 812.000000 3942.000000
2707.000000 1498.000000 3510.000000
665.000000 1286.000000 1160.000000
612.000000 466.000000 2668.000000
1383.000000 295.000000 1652.000000
543.000000 3051.000000 3201.000000
1459.000000 2217.000000 844.000000
471.000000 3053.000000 588.000000
1812.000000 3449.000000 1049.000000
2195.000000 663.000000 3835.000000
2026.000000 3068.000000 3242.000000
952.000000 2726.000000 2403.000000
759.000000 1741.000000 3887.000000
1594.000000 1354.000000 3628.000000
3236.000000 2143.000000 3152.000000
60.000000 1939.000000 1123.000000
2386.000000 2322.000000 3554.000000
1183.000000 2623.000000 1567.000000
1218.000000 571.000000 3222.000000
1276.000000 3049.000000 3502.000000
720.000000 2518.000000 3760.000000
714.000000 510.000000 1295.000000
687.000000 2369.000000 916.000000
1344.000000 923.000000 1127.000000
1334.000000 424.000000 2408.000000
1209.000000 3213.000000 656.000000
1819.000000 2277.000000 216.000000
45.000000 2915.000000 1153.000000
542.000000 348.000000 1968.000000
3482.000000 1500.000000 3337.000000
1553.000000 2839.000000 2763.000000
1516.000000 508.000000 3849.000000
126.000000 876.000000 1315.000000
1999.000000 1800.000000 941.000000
1258.000000 1587.000000 1004.000000
1801.000000 463.000000 1179.000000
2103.000000 1740.000000 3500.000000
359.000000 2908.000000 2254.000000
1852.000000 290.000000 2075.000000
1670.000000 2817.000000 521.000000
1680.000000 2651.000000 1184.000000
640.000000 507.000000 3248.000000
1016.000000 2822.000000 2968.000000
2238.000000 1208.000000 3666.000000
1845.000000 587.000000 3396.000000
1145.000000 2685.000000 1005.000000
750.000000 1825.000000 1033.000000
1242.000000 1780.000000 3620.000000
2718.000000 1993.000000 3262.000000
520.000000 2734.000000 2748.000000
1910.000000 2587.000000 3480.000000
140.000000 1414.000000 1237.000000
1080.000000 1307.000000 3826.000000
1325.000000 2853.000000 2033.000000
882.000000 138.000000 1626.000000
956.000000 2773.000000 521.000000
170.000000 2434.000000 985.000000
790.000000 2634.000000 1913.000000
783.000000 3021.000000 3656.000000
708.000000 2542.000000 1399.000000
1666.000000 2677.000000 1684.000000
1778.000000 923.000000 3782.000000
1025.000000 360.000000 2036.000000
1196.000000 473.000000 1239.000000
1728.000000 3295.000000 488.000000
1707.000000 1422.000000 975.000000
3670.000000 2046.000000 3322.000000
1488.000000 496.000000 2845.000000
267.000000 442.000000 1407.000000
3055.000000 1664.000000 3251.000000
1141.000000 2613.000000 3590.000000
1019.000000 2177.000000 3684.000000
1329.000000 928.000000 3853.000000
1675.000000 1886.000000 3527.000000
1038.000000 498.000000 2814.000000
1583.000000 3020.000000 3174.000000
901.000000 905.000000 1191.000000
1909.000000 3015.000000 1069.000000
137.000000 2798.000000 735.000000
1097.000000 494.000000 3712.000000
1229.000000 3267.000000 223.000000
1762.000000 426.000000 2477.000000
1044.000000 2122.000000 923.000000
1990.000000 2170.000000 3518.000000
534.000000 115.000000 1393.000000
1955.000000 2925.000000 2846.000000
1758.000000 870.000000 1085.000000
1586.000000 1827.000000 912.000000
1740.000000 177.000000 1483.000000
399.000000 2711.000000 1187.000000
1527.000000 2726.000000 3517.000000
433.000000 2081.000000 1048.000000
939.000000 3072.000000 3280.000000
930.000000 429.000000 2422.000000
276.000000 63.000000 1866.000000
1541.000000 2779.000000 2365.000000
1827.000000 3627.000000 688.000000
1461.000000 353.000000 2037.000000
1100.000000 1235.000000 1096.000000
2488.000000 1827.000000 3538.000000
513.000000 934.000000 1261.000000
391.000000 1697.000000 1130.000000
3730.000000 1714.000000 3120.000000
428.000000 354.000000 2341.000000
1543.000000 2596.000000 817.000000
914.000000 3143.000000 414.000000
1529.000000 2488.000000 351.000000
1481.000000 601.000000 3487.000000
768.000000 620.000000 3586.000000
1087.000000 126.000000 1315.000000
1882.000000 2868.000000 2486.000000
1311.000000 2845.000000 441.000000
1952.000000 1440.000000 3653.000000
2122.000000 1464.000000 852.000000
451.000000 2615.000000 2051.000000
714.000000 2882.000000 2171.000000
1206.000000 2803.000000 2656.000000
786.000000 2683.000000 1072.000000
1455.000000 219.000000 1262.000000
2169.000000 2838.000000 3481.000000
3369.000000 1839.000000 3291.000000
2525.000000 2295.000000 3224.000000
1348.000000 2558.000000 1263.000000
904.000000 1518.000000 1069.000000
1592.000000 554.000000 3166.000000
3041.000000 1981.000000 3382.000000
1498.000000 621.000000 1178.000000
1769.000000 2082.000000 780.000000
2347.000000 1524.000000 3601.000000
1245.000000 2975.000000 3167.000000
1786.000000 2927.000000 3434.000000
1435.000000 1240.000000 1052.000000
465.000000 2621.000000 870.000000
688.000000 2799.000000 3033.000000
1710.000000 3230.000000 817.000000
1689.000000 309.000000 1785.000000
263.000000 2486.000000 1391.000000
1016.000000 2544.000000 1277.000000
623.000000 2702.000000 2436.000000
566.000000 124.000000 1721.000000
1189.000000 2406.000000 836.000000
1575.000000 2898.000000 217.000000
756.000000 3161.000000 700.000000
911.000000 496.000000 4011.000000
1334.000000 1498.000000 3756.000000
982.000000 1591.000000 3707.000000
1000.000000 2855.000000 2020.000000
840.000000 2762.000000 2703.000000
763.000000 2057.000000 3835.000000
1276.000000 1902.000000 938.000000
751.000000 521.000000 2949.000000
2041.000000 510.000000 3157.000000
2819.000000 2273.000000 3370.000000
2539.000000 1259.000000 3391.000000
1912.000000 651.000000 3697.000000
2088.000000 941.000000 3735.000000
818.000000 1437.000000 3934.000000
374.000000 1210.000000 1234.000000
2270.000000 2043.000000 3489.000000
927.000000 593.000000 3323.000000
1603.000000 2730.000000 1982.000000
850.000000 1118.000000 3901.000000
927.000000 2565.000000 826.000000
1243.000000 2751.000000 2310.000000
705.000000 396.000000 2220.000000
1097.000000 312.000000 1747.000000
2206.000000 2538.000000 3445.000000
937.000000 1885.000000 3660.000000
1376.000000 2677.000000 1791.000000
890.000000 2597.000000 1631.000000
3004.000000 1462.000000 3466.000000
1252.000000 636.000000 3925.000000
806.000000 228.000000 1334.000000
1718.000000 1625.000000 3664.000000
875.000000 2740.000000 3631.000000
807.000000 334.000000 1836.000000
1394.000000 1210.000000 3794.000000
1751.000000 2342.000000 3530.000000
605.000000 2560.000000 1695.000000
458.000000 651.000000 1328.000000
2195.000000 721.000000 3547.000000
700.000000 2871.000000 625.000000
1435.000000 1998.000000 3653.000000
573.000000 3129.000000 3481.000000
1793.000000 1149.000000 1018.000000
2552.000000 2100.000000 3472.000000
1031.000000 1766.000000 1001.000000
1313.000000 2838.000000 2920.000000
1085.000000 2651.000000 1833.000000
1815.000000 1197.000000 3715.000000
767.000000 2104.000000 979.000000
962.000000 632.000000 1236.000000
1547.000000 3102.000000 3443.000000
1488.000000 3237.000000 624.000000
1454.000000 2638.000000 1508.000000
631.000000 1558.000000 1115.000000
3487.000000 2031.000000 3113.000000
1274.000000 471.000000 2673.000000
1841.000000 2923.000000 3098.000000
1206.000000 616.000000 3492.000000
174.000000 2706.000000 1017.000000
1650.000000 387.000000 2231.000000
49.000000 2208.000000 1079.000000
78.000000 1671.000000 1169.000000
1556.000000 778.000000 3847.000000
1028.000000 2953.000000 3557.000000
3226.000000 1455.000000 3262.000000
424.000000 2340.000000 971.000000
1929.000000 3334.000000 698.000000
2790.000000 1646.000000 3301.000000
1211.000000 2354.000000 3623.000000
950.000000 2436.000000 3651.000000
1611.000000 3470.000000 660.000000
1366.000000 2518.000000 999.000000
2814.000000 1318.000000 3347.000000
998.000000 546.000000 3072.000000
122.000000 1138.000000 1271.000000
2960.000000 2141.000000 3188.000000
1727.000000 467.000000 2737.000000
1256.000000 522.000000 2966.000000
1929.000000 1921.000000 3576.000000
774.000000 459.000000 3792.000000
1077.000000 991.000000 3878.000000
2096.000000 521.000000 3413.000000
3750.000000 1970.000000 3086.000000
1716.000000 224.000000 1225.000000
1518.000000 451.000000 2587.000000
3712.000000 1617.000000 3358.000000
1486.000000 1705.000000 3586.000000
1785.000000 1660.000000 913.000000
1243.000000 385.000000 2170.000000
1674.000000 566.000000 3653.000000
832.000000 2842.000000 3242.000000
511.000000 369.000000 1367.000000
1182.000000 175.000000 1548.000000
1513.000000 1589.000000 972.000000
185.000000 2765.000000 1316.000000
1196.000000 724.000000 1188.000000
377.000000 2884.000000 754.000000
699.000000 761.000000 1257.000000
643.000000 2808.000000 3708.000000
491.000000 2492.000000 1278.000000
1345.000000 485.000000 3665.000000
294.000000 191.000000 1427.000000
1813.000000 526.000000 3048.000000
3837.000000 1853.000000 3301.000000
1866.000000 2679.000000 446.000000
413.000000 1452.000000 1179.000000
1387.000000 2524.000000 3565.000000
2342.000000 1003.000000 3763.000000
1566.000000 1029.000000 1078.000000
498.000000 2860.000000 2049.000000
769.000000 2277.000000 3714.000000
871.000000 1148.000000 1148.000000
1292.000000 2803.000000 3541.000000
1614.000000 2367.000000 723.000000
1054.000000 2901.000000 2259.000000
1552.000000 1021.000000 3795.000000
1939.000000 1338.000000 958.000000
1653.000000 2124.000000 3583.000000
3249.000000 1656.000000 3400.000000
857.000000 473.000000 2652.000000
2447.000000 1328.000000 3705.000000
129.000000 637.000000 1362.000000
1194.000000 2007.000000 3692.000000
1769.000000 3036.000000 169.000000
925.000000 2331.000000 890.000000
346.000000 73.000000 1634.000000
1673.000000 2713.000000 1438.000000
972.000000 394.000000 1279.000000
1244.000000 338.000000 1935.000000
3495.000000 1670.000000 3169.000000
1115.000000 998.000000 1138.000000
460.000000 2874.000000 2468.000000
3169.000000 1916.000000 3187.000000
1636.000000 2893.000000 2979.000000
1781.000000 2855.000000 2701.000000
1854.000000 656.000000 1053.000000
1388.000000 3133.000000 3271.000000
986.000000 3133.000000 638.000000
700.000000 2619.000000 859.000000
1424.000000 2801.000000 2568.000000
459.000000 2528.000000 1513.000000
696.000000 436.000000 2451.000000
2556.000000 1623.000000 3640.000000
3252.000000 2115.000000 3383.000000
1965.000000 906.000000 985.000000
1445.000000 3279.000000 138.000000
289.000000 1908.000000 1106.000000
528.000000 1872.000000 1070.000000
23.000000 2857.000000 932.000000
1578.000000 407.000000 1215.000000
2034.000000 2394.000000 3496.000000
1911.000000 369.000000 2642.000000
2061.000000 3063.000000 3468.000000
1526.000000 257.000000 1476.000000
1685.000000 2561.000000 3518.000000
1858.000000 319.000000 2301.000000
2593.000000 2323.000000 3439.000000
2348.000000 2391.000000 3341.000000
1674.000000 2947.000000 2441.000000
2954.000000 1687.000000 3452.000000
993.000000 632.000000 3566.000000
1051.000000 2860.000000 3189.000000
670.000000 2918.000000 2392.000000
793.000000 3105.000000 3447.000000
1802.000000 1879.000000 870.000000
1264.000000 2120.000000 892.000000
304.000000 1006.000000 1289.000000
1676.000000 3234.000000 1036.000000
1799.000000 2770.000000 1887.000000
1931.000000 1660.000000 3614.000000
2636.000000 1303.000000 3586.000000
1069.000000 462.000000 2591.000000
1895.000000 3189.000000 934.000000
1756.000000 2790.000000 2308.000000
1431.000000 2879.000000 3101.000000
2029.000000 1150.000000 3703.000000
1667.000000 2514.000000 978.000000
3465.000000 2123.000000 3320.000000
1184.000000 2507.000000 1126.000000
674.000000 1071.000000 1205.000000
612.000000 2658.000000 1203.000000
390.000000 342.000000 2126.000000
2677.000000 1920.000000 3480.000000
1960.000000 2795.000000 3433.000000
1409.000000 2650.000000 442.000000
652.000000 2699.000000 2069.000000
2163.000000 1405.000000 3610.000000
1262.000000 1373.000000 1045.000000
3598.000000 1846.000000 3274.000000
615.000000 2847.000000 3233.000000
813.000000 2514.000000 1206.000000
1462.000000 2004.000000 891.000000
1743.000000 668.000000 3832.000000
1135.000000 2610.000000 786.000000
922.000000 1953.000000 981.000000
262.000000 2215.000000 1042.000000
1149.000000 3084.000000 3330.000000
1294.000000 2159.000000 3573.000000
2191.000000 2246.000000 3489.000000
556.000000 457.000000 2884.000000
1163.000000 2795.000000 589.000000
1410.000000 2425.000000 810.000000
1246.000000 265.000000 1275.000000
686.000000 108.000000 1544.000000
1484.000000 2780.000000 2156.000000
1548.000000 821.000000 1122.000000
1040.000000 653.000000 3940.000000
745.000000 3059.000000 513.000000
2959.000000 1853.000000 3232.000000
1130.000000 415.000000 2348.000000
3261.000000 1669.000000 3189.000000
916.000000 392.000000 2214.000000
1419.000000 573.000000 3286.000000
1666.000000 341.000000 1992.000000
2308.000000 1719.000000 3537.000000
1533.000000 1542.000000 3712.000000
1486.000000 319.000000 1833.000000
2854.000000 2070.000000 3401.000000
1183.000000 2703.000000 2009.000000
1457.000000 2920.000000 3494.000000
804.000000 366.000000 2041.000000
469.000000 2585.000000 1848.000000
586.000000 2202.000000 981.000000
318.000000 804.000000 1328.000000
1445.000000 391.000000 2238.000000
1013.000000 2773.000000 2593.000000
2682.000000 1717.000000 3508.000000
1274.000000 1119.000000 1090.000000
1643.000000 580.000000 3363.000000
1538.000000 2604.000000 1324.000000
746.000000 3029.000000 3227.000000
2074.000000 558.000000 3613.000000
1204.000000 1143.000000 3827.000000
807.000000 559.000000 3142.000000
858.000000 2906.000000 2314.000000
1096.000000 3146.000000 323.000000
1979.000000 1605.000000 883.000000
1515.000000 2548.000000 1129.000000
613.000000 3021.000000 725.000000
1137.000000 1497.000000 3791.000000
1443.000000 506.000000 3042.000000
1164.000000 813.000000 3899.000000
2697.000000 2191.000000 3236.000000
1630.000000 2809.000000 2580.000000
1010.000000 2587.000000 1473.000000
493.000000 428.000000 2514.000000
1621.000000 1203.000000 3755.000000
978.000000 2657.000000 1113.000000
1775.000000 2732.000000 3475.000000
1185.000000 2584.000000 1373.000000
