ply
format ascii 1.0
element vertex 400
property float x
property float y
property float z
end_header
1335.000000 1474.000000 219.000000
3748.000000 3301.000000 2993.000000
363.000000 3562.000000 2728.000000
1839.000000 582.000000 3270.000000
3157.000000 1537.000000 1632.000000
120.000000 1276.000000 2036.000000
2121.000000 3243.000000 1825.000000
1422.000000 2237.000000 3037.000000
3011.000000 1838.000000 3249.000000
1307.000000 250.000000 1802.000000
975.000000 2355.000000 1405.000000
2754.000000 1266.000000 225.000000
1747.000000 3696.000000 3129.000000
2677.000000 307.000000 2145.000000
2230.000000 2258.000000 937.000000
2897.000000 4093.000000 2520.000000
3262.000000 2740.000000 1971.000000
265.000000 2343.000000 2633.000000
2638.000000 2935.000000 3060.000000
3906.000000 1654.000000 2515.000000
938.000000 1190.000000 2855.000000
930.000000 1211.000000 1246.000000
1044.000000 3298.000000 1926.000000
2759.000000 896.000000 2962.000000
2067.000000 1547.000000 3341.000000
1225.000000 4032.000000 2451.000000
2744.000000 922.000000 1093.000000
4032.000000 2556.000000 2546.000000
1094.000000 3087.000000 2975.000000
3288.000000 946.000000 2267.000000
2117.000000 1840.000000 190.000000
237.000000 3009.000000 2086.000000
2076.000000 3918.000000 2361.000000
1875.000000 245.000000 2426.000000
3410.000000 2551.000000 3108.000000
336.000000 2059.000000 1859.000000
745.000000 744.000000 2186.000000
1434.000000 2087.000000 765.000000
2844.000000 1717.000000 898.000000
1712.000000 2708.000000 1374.000000
2841.000000 2291.000000 1455.000000
2849.000000 3406.000000 2114.000000
2207.000000 2275.000000 3072.000000
2536.000000 3709.000000 3108.000000
1854.000000 2950.000000 3001.000000
3527.000000 2055.000000 2013.000000
776.000000 1905.000000 2935.000000
3357.000000 1348.000000 2860.000000
1344.000000 617.000000 2700.000000
3519.000000 3294.000000 2329.000000
1379.000000 1574.000000 3223.000000
3203.000000 3707.000000 2983.000000
2903.000000 790.000000 1737.000000
2653.000000 2860.000000 1726.000000
347.000000 1711.000000 2480.000000
471.000000 2928.000000 2854.000000
1606.000000 3605.000000 2037.000000
952.000000 3724.000000 2946.000000
700.000000 3748.000000 2226.000000
725.000000 1776.000000 1448.000000
3552.000000 1954.000000 2946.000000
726.000000 2783.000000 1771.000000
2325.000000 521.000000 2761.000000
891.000000 2503.000000 2942.000000
1014.000000 764.000000 1639.000000
3203.000000 3115.000000 3159.000000
2187.000000 1026.000000 3085.000000
3535.000000 1461.000000 2096.000000
2828.000000 2376.000000 3087.000000
1579.000000 1053.000000 3031.000000
1382.000000 933.000000 993.000000
2621.000000 1392.000000 3244.000000
607.000000 1159.000000 1748.000000
1544.000000 3134.000000 1714.000000
2270.000000 2612.000000 1379.000000
1000.000000 1784.000000 957.000000
3040.000000 970.000000 618.000000
571.000000 1206.000000 2437.000000
2922.000000 614.000000 2517.000000
123.000000 2482.000000 2122.000000
3979.000000 3092.000000 2547.000000
2592.000000 1745.000000 428.000000
2129.000000 3978.000000 2889.000000
2215.000000 57.000000 2071.000000
2244.000000 3278.000000 3114.000000
3862.000000 2794.000000 2973.000000
2494.000000 1897.000000 3276.000000
3217.000000 3697.000000 2451.000000
3679.000000 2520.000000 2169.000000
1617.000000 1887.000000 322.000000
1202.000000 2780.000000 1570.000000
117.000000 3146.000000 2560.000000
2560.000000 3771.000000 2321.000000
1181.000000 487.000000 2239.000000
1822.000000 1952.000000 3148.000000
265.000000 3496.000000 2224.000000
2996.000000 1342.000000 1199.000000
1645.000000 4029.000000 2724.000000
25.000000 1760.000000 2101.000000
1425.000000 2717.000000 2923.000000
1402.000000 2396.000000 1156.000000
3843.000000 2124.000000 2408.000000
3174.000000 2021.000000 1686.000000
1520.000000 3281.000000 3059.000000
1954.000000 2064.000000 605.000000
393.000000 1594.000000 1796.000000
1669.000000 40.000000 2055.000000
2345.000000 1447.000000 70.000000
1156.000000 3696.000000 2136.000000
693.000000 3327.000000 2953.000000
3626.000000 3606.000000 2654.000000
918.000000 787.000000 2628.000000
2644.000000 2101.000000 1069.000000
3798.000000 2340.000000 2889.000000
3195.000000 1127.000000 1849.000000
3156.000000 962.000000 2712.000000
1812.000000 2466.000000 2941.000000
2982.000000 1836.000000 1315.000000
2815.000000 3346.000000 3139.000000
602.000000 3270.000000 2004.000000
2243.000000 2718.000000 3011.000000
1793.000000 2340.000000 950.000000
2212.000000 3593.000000 2093.000000
2966.000000 1433.000000 582.000000
1795.000000 1562.000000 73.000000
619.000000 2363.000000 1689.000000
1222.000000 1801.000000 497.000000
675.000000 1522.000000 2734.000000
2546.000000 3967.000000 2752.000000
2777.000000 644.000000 746.000000
2289.000000 393.000000 2348.000000
1741.000000 453.000000 2782.000000
101.000000 2716.000000 2482.000000
218.000000 2095.000000 2282.000000
1360.000000 3841.000000 2985.000000
2033.000000 2908.000000 1577.000000
3017.000000 594.000000 2103.000000
3022.000000 1437.000000 3106.000000
3181.000000 3132.000000 2112.000000
1152.000000 1919.000000 3131.000000
1637.000000 3930.000000 2314.000000
2654.000000 452.000000 1736.000000
3234.000000 2169.000000 3122.000000
3035.000000 2738.000000 3095.000000
2528.000000 3226.000000 1912.000000
3460.000000 1270.000000 2461.000000
686.000000 3821.000000 2632.000000
2973.000000 2571.000000 1728.000000
3689.000000 2918.000000 2312.000000
990.000000 1557.000000 3029.000000
2359.000000 1979.000000 666.000000
1727.000000 1380.000000 3219.000000
441.000000 1049.000000 2091.000000
604.000000 2246.000000 2829.000000
3313.000000 2356.000000 1873.000000
1105.000000 2136.000000 1104.000000
2996.000000 1097.000000 1509.000000
1222.000000 926.000000 2911.000000
1524.000000 410.000000 2411.000000
2133.000000 3649.000000 3115.000000
3562.000000 2978.000000 3129.000000
3601.000000 1625.000000 2752.000000
941.000000 529.000000 1935.000000
3325.000000 1666.000000 3069.000000
384.000000 2686.000000 1933.000000
3655.000000 1783.000000 2258.000000
1217.000000 1253.000000 3104.000000
3362.000000 1738.000000 1888.000000
2850.000000 3835.000000 2938.000000
3852.000000 1367.000000 2277.000000
1187.000000 3447.000000 3035.000000
2090.000000 675.000000 3005.000000
3410.000000 3419.000000 3112.000000
399.000000 1456.000000 2217.000000
732.000000 1408.000000 1508.000000
1880.000000 3356.000000 3089.000000
696.000000 804.000000 1814.000000
1858.000000 950.000000 3239.000000
1593.000000 691.000000 3013.000000
2870.000000 3067.000000 1940.000000
2529.000000 2365.000000 1289.000000
817.000000 2857.000000 2928.000000
447.000000 2568.000000 2850.000000
2712.000000 993.000000 476.000000
1972.000000 2537.000000 1197.000000
2953.000000 1216.000000 868.000000
2672.000000 596.000000 2771.000000
483.000000 1932.000000 2722.000000
2428.000000 779.000000 2986.000000
1788.000000 3347.000000 1865.000000
1007.000000 2990.000000 1769.000000
2492.000000 2472.000000 3045.000000
2149.000000 1867.000000 3234.000000
1378.000000 3383.000000 1898.000000
1398.000000 243.000000 2135.000000
2345.000000 3008.000000 1714.000000
169.000000 1232.000000 1701.000000
2291.000000 1302.000000 3262.000000
2899.000000 3671.000000 2323.000000
2662.000000 2575.000000 1539.000000
582.000000 2030.000000 1625.000000
329.000000 3234.000000 2814.000000
3761.000000 1935.000000 2678.000000
427.000000 3726.000000 2435.000000
964.000000 2176.000000 3017.000000
1487.000000 1896.000000 3167.000000
2526.000000 1100.000000 3092.000000
869.000000 1069.000000 1544.000000
3876.000000 3382.000000 2679.000000
1895.000000 3717.000000 2163.000000
2773.000000 2071.000000 3217.000000
3002.000000 1139.000000 2957.000000
1003.000000 3914.000000 2677.000000
3154.000000 3438.000000 2251.000000
873.000000 2045.000000 1319.000000
2536.000000 3507.000000 2116.000000
1215.000000 2463.000000 2924.000000
3080.000000 3847.000000 2706.000000
2043.000000 355.000000 2708.000000
2736.000000 1683.000000 3330.000000
2267.000000 4035.000000 2601.000000
927.000000 3940.000000 2365.000000
855.000000 3506.000000 2081.000000
2389.000000 1603.000000 3349.000000
2601.000000 467.000000 2412.000000
3946.000000 3085.000000 2870.000000
1952.000000 4072.000000 2614.000000
3530.000000 2257.000000 3052.000000
346.000000 2375.000000 1889.000000
1406.000000 2630.000000 1372.000000
922.000000 2606.000000 1588.000000
514.000000 2977.000000 1933.000000
1118.000000 2772.000000 2958.000000
4033.000000 2827.000000 2712.000000
87.000000 1555.000000 1852.000000
1699.000000 1694.000000 3279.000000
99.000000 3233.000000 2261.000000
876.000000 1641.000000 1212.000000
653.000000 3624.000000 2870.000000
748.000000 1046.000000 2638.000000
3325.000000 1414.000000 1874.000000
3425.000000 2935.000000 2152.000000
1501.000000 2877.000000 1549.000000
1130.000000 985.000000 1183.000000
17.000000 2773.000000 2191.000000
3103.000000 3454.000000 3139.000000
2491.000000 2182.000000 3146.000000
3418.000000 1170.000000 2055.000000
1829.000000 3940.000000 2952.000000
1998.000000 1256.000000 3153.000000
2625.000000 1916.000000 826.000000
1553.000000 3000.000000 2947.000000
2157.000000 3011.000000 2997.000000
179.000000 3447.000000 2517.000000
1457.000000 3574.000000 3101.000000
3183.000000 859.000000 1998.000000
2541.000000 3223.000000 3112.000000
1344.000000 3993.000000 2725.000000
2411.000000 1716.000000 189.000000
2907.000000 3057.000000 3117.000000
3128.000000 2453.000000 3119.000000
3347.000000 3717.000000 2720.000000
97.000000 2348.000000 2388.000000
3063.000000 2298.000000 1653.000000
225.000000 2892.000000 2686.000000
2784.000000 1529.000000 365.000000
3946.000000 2283.000000 2635.000000
2727.000000 2652.000000 3056.000000
1935.000000 84.000000 2175.000000
1848.000000 3097.000000 1705.000000
1717.000000 2215.000000 3059.000000
1654.000000 2023.000000 583.000000
3661.000000 1476.000000 2508.000000
3304.000000 2842.000000 3144.000000
1204.000000 1902.000000 769.000000
968.000000 628.000000 2390.000000
1257.000000 3137.000000 1785.000000
2935.000000 764.000000 2765.000000
3852.000000 2673.000000 2351.000000
1678.000000 2506.000000 1158.000000
2082.000000 1578.000000 46.000000
3718.000000 2234.000000 2168.000000
2172.000000 1960.000000 448.000000
2420.000000 2772.000000 1568.000000
546.000000 3512.000000 2148.000000
139.000000 2209.000000 2031.000000
1357.000000 3877.000000 2250.000000
2787.000000 1658.000000 620.000000
495.000000 1469.000000 2519.000000
1903.000000 1938.000000 351.000000
3133.000000 797.000000 2460.000000
3691.000000 2570.000000 3019.000000
3049.000000 1564.000000 1369.000000
676.000000 946.000000 2382.000000
2888.000000 909.000000 849.000000
229.000000 1800.000000 1899.000000
2994.000000 2819.000000 1862.000000
2284.000000 2425.000000 1157.000000
3587.000000 3531.000000 2922.000000
307.000000 2070.000000 2552.000000
3940.000000 2570.000000 2811.000000
2876.000000 3625.000000 3122.000000
2421.000000 205.000000 2189.000000
3865.000000 2395.000000 2344.000000
770.000000 3080.000000 1884.000000
3766.000000 3245.000000 2454.000000
1559.000000 1638.000000 203.000000
2391.000000 3911.000000 2975.000000
2909.000000 1195.000000 453.000000
1964.000000 2694.000000 2979.000000
3456.000000 3539.000000 2448.000000
2853.000000 2073.000000 1261.000000
1665.000000 236.000000 2245.000000
2772.000000 1230.000000 3072.000000
2853.000000 446.000000 1943.000000
2991.000000 1610.000000 1101.000000
147.000000 1837.000000 2333.000000
1939.000000 453.000000 3051.000000
335.000000 1068.000000 1841.000000
765.000000 2216.000000 1508.000000
1695.000000 2732.000000 2953.000000
1540.000000 2468.000000 2938.000000
1974.000000 3502.000000 1998.000000
2689.000000 3919.000000 2519.000000
1486.000000 1265.000000 3172.000000
1522.000000 2283.000000 941.000000
2292.000000 3779.000000 2275.000000
346.000000 3271.000000 2097.000000
1144.000000 341.000000 1998.000000
2999.000000 2075.000000 1488.000000
2924.000000 1086.000000 1250.000000
3124.000000 1799.000000 1540.000000
1497.000000 4069.000000 2504.000000
921.000000 3459.000000 3002.000000
62.000000 2979.000000 2356.000000
2314.000000 3376.000000 1968.000000
556.000000 1762.000000 1668.000000
3326.000000 1048.000000 2523.000000
3446.000000 2562.000000 2043.000000
2430.000000 3467.000000 3137.000000
2020.000000 2705.000000 1397.000000
258.000000 2608.000000 2668.000000
1382.000000 1587.000000 454.000000
2436.000000 2097.000000 900.000000
173.000000 1540.000000 2110.000000
1158.000000 2549.000000 1410.000000
1994.000000 2214.000000 818.000000
405.000000 1325.000000 1771.000000
3246.000000 1906.000000 3139.000000
2579.000000 1476.000000 211.000000
1677.000000 443.000000 3119.000000
1763.000000 2897.000000 1547.000000
2042.000000 2094.000000 3163.000000
2922.000000 1473.000000 838.000000
673.000000 3069.000000 2935.000000
3110.000000 1275.000000 1652.000000
1749.000000 2202.000000 740.000000
2831.000000 1904.000000 1070.000000
1873.000000 1797.000000 133.000000
1123.000000 736.000000 2769.000000
1303.000000 2944.000000 2988.000000
2064.000000 2455.000000 2967.000000
2096.000000 236.000000 2295.000000
2831.000000 489.000000 2313.000000
2401.000000 3015.000000 3078.000000
491.000000 1684.000000 2683.000000
3506.000000 2304.000000 2025.000000
1738.000000 3171.000000 2987.000000
1171.000000 2343.000000 1235.000000
682.000000 2647.000000 2922.000000
666.000000 1281.000000 2656.000000
2985.000000 2179.000000 3133.000000
983.000000 948.000000 2816.000000
975.000000 1440.000000 1332.000000
3795.000000 1881.000000 2438.000000
570.000000 2581.000000 1797.000000
1390.000000 1787.000000 307.000000
1517.000000 1446.000000 52.000000
3843.000000 1622.000000 2270.000000
944.000000 1794.000000 3084.000000
793.000000 1652.000000 2914.000000
2942.000000 3851.000000 2500.000000
1424.000000 1927.000000 562.000000
3337.000000 2099.000000 1854.000000
2495.000000 2734.000000 3044.000000
1359.000000 3594.000000 2041.000000
1508.000000 434.000000 2695.000000
2029.000000 2381.000000 1016.000000
1301.000000 2167.000000 960.000000
1584.000000 3938.000000 2949.000000
3728.000000 2108.000000 2857.000000
2439.000000 3938.000000 2452.000000
1319.000000 545.000000 2432.000000
3939.000000 2858.000000 2489.000000
3484.000000 1411.000000 2662.000000
3633.000000 1261.000000 2271.000000
2663.000000 801.000000 898.000000
3556.000000 3223.000000 3120.000000
2287.000000 2065.000000 3205.000000
1935.000000 1744.000000 3255.000000
