ply
format ascii 1.0
element vertex 400
property float x
property float y
property float z
end_header
13.144820 -41.777065 -74.083405
26.440918 45.597267 -16.305269
-21.045124 -125.853844 -41.922531
59.274113 -108.257523 -53.108139
23.064129 -12.471222 -24.194416
-21.467224 -69.482819 -39.389946
15.677416 -89.179802 -63.660580
49.445271 -59.505184 -50.591522
16.310547 3.273163 -66.615273
-0.573366 16.472488 -8.776096
-8.382181 -32.701954 -42.679539
50.169060 14.784088 -18.073986
36.360222 -27.391914 -52.686047
-16.191004 -96.860886 -57.706936
-7.537988 -66.680862 -68.852798
32.561348 -66.047714 -75.782410
22.008888 17.527725 -29.463375
40.276367 -86.941582 -48.676102
15.677413 -62.881969 -53.740814
7.446499 -11.386002 -46.054993
1.326065 -82.087433 -42.849464
0.270828 -111.001167 -43.435333
34.523361 -111.634315 -48.676102
30.087496 -0.411453 -45.299309
14.411113 -37.808479 -49.942398
40.581200 -100.026611 -68.963081
22.219931 -19.686638 -70.625198
-8.727608 -43.043354 -64.293739
36.782330 -43.043350 -70.787247
3.747719 1.699055 -26.727001
-3.932876 -55.284210 -44.244072
20.158016 25.336563 -8.365721
-24.632965 -105.014153 -40.023090
41.396648 -2.099846 -27.360142
12.300629 -71.112885 -73.605301
49.023174 -125.882210 -51.208702
32.964893 -47.475384 -51.208694
21.375738 -80.187996 -44.913406
18.421051 5.845856 -13.430908
36.360222 28.924370 -21.266178
45.418037 -74.489670 -63.238483
-3.317001 -85.886322 -67.956001
4.069714 -28.024397 -63.449535
23.275188 -24.893133 -38.952419
-14.780209 -78.077499 -55.007572
12.722723 6.498081 -42.766731
0.000000 -0.000004 0.000008
30.872952 -84.408989 -73.273117
-13.869461 -115.050316 -55.218620
32.983421 -66.891899 -48.962345
2.015907 -98.338219 -56.062820
33.827629 14.362006 -11.174412
24.963568 -96.818771 -50.575550
-9.859543 -95.594589 -41.358967
22.219929 -16.662209 -53.833324
8.501749 -11.688512 -64.504791
47.545822 -114.377937 -63.625820
-15.343596 -61.193581 -55.007572
43.600761 -57.816799 -66.193176
5.124962 -56.128403 -71.378456
-15.135756 -45.364880 -49.840141
36.993370 13.095703 -27.029823
20.712521 -55.706303 -74.213036
50.194160 -96.016678 -57.118080
8.887051 15.417234 -21.239731
5.969139 -26.581520 -43.075481
44.380085 -39.575413 -57.751209
11.456413 -92.639893 -45.926743
-6.482740 -69.635536 -40.624214
7.235450 -50.641121 -52.834221
22.008884 32.301163 -21.212151
25.385672 -33.791016 -72.946747
12.390965 -8.220261 -32.847420
52.188904 -73.588715 -50.153446
28.137360 0.854858 -22.717064
-7.537991 -122.796066 -44.877228
21.381638 6.764221 -53.952332
4.702857 3.079060 -12.797757
28.551407 -94.750381 -63.918789
27.102617 -11.597050 -37.490498
6.955284 27.658079 -11.953571
-12.603167 -82.087448 -41.934944
5.969151 -69.635544 -46.708755
20.109447 -50.589867 -57.540169
41.636456 4.231659 -15.456511
12.300632 14.784103 -5.274210
-6.060644 -32.912991 -55.918480
42.902740 -86.874794 -67.670525
1.748173 -40.510773 -46.151199
46.549828 -106.358078 -49.731346
27.285114 -35.867691 -48.455818
0.903980 -37.936852 -71.469414
-12.603152 -109.101730 -42.886665
28.973503 9.085771 -36.516373
-24.844002 -115.222130 -48.312355
18.210011 -4.580215 -48.254002
34.671833 -32.279854 -64.383026
42.902737 23.226067 -12.017025
-16.098095 -58.449932 -42.555679
17.787905 -8.009212 -72.168671
45.224277 -47.897495 -48.288910
36.278606 -108.468582 -60.705910
32.772392 -53.384754 -76.586739
-7.267292 -54.228951 -69.992065
15.888462 0.127472 -24.405455
36.782333 -98.971367 -47.704147
14.200075 -29.114117 -70.378845
5.853289 -20.672161 -53.741287
19.265247 -81.032196 -71.993736
-7.537983 -105.302849 -58.901611
1.115025 -74.911766 -71.104683
12.511683 10.593922 -31.581123
38.952320 -37.767124 -47.198761
10.612236 2.213078 -56.062824
15.677410 35.677948 -11.833786
-7.960083 -44.309654 -40.547676
13.100989 -19.194809 -37.068405
1.115025 -98.549278 -44.297035
40.370155 -119.080872 -55.640724
47.736549 -84.408981 -57.329105
30.532701 -18.983765 -45.932468
-20.200935 -96.608513 -46.776657
32.772385 -78.288559 -46.980515
26.592018 -24.682087 -60.916950
24.819458 -44.942802 -75.901443
55.987770 -118.598923 -56.967785
31.288465 25.547607 -11.531454
28.551403 -57.605743 -54.242989
37.914745 -75.333878 -71.891502
38.470711 -56.972610 -48.631401
-12.521578 -86.941582 -61.550098
48.647835 6.131073 -25.038605
-20.834080 -105.935989 -53.101959
7.657547 -83.642853 -68.936813
-9.404938 -77.022263 -65.348984
47.013481 -50.219028 -59.017502
34.038689 -3.256577 -35.380009
-5.849594 -95.737045 -63.871632
22.642029 -70.388321 -49.520309
14.411118 24.703396 -19.366501
31.506088 36.100060 -14.639598
23.064133 -71.323936 -75.192245
-13.527502 -51.274273 -59.017509
23.064131 15.628294 -12.218018
50.711567 -66.800926 -58.173309
52.822060 -105.500084 -61.339043
-16.505238 -87.996811 -51.630798
3.375462 -60.138332 -50.364494
7.584764 -2.521912 -40.234142
41.847488 -72.590233 -48.726402
-17.035194 -69.743004 -48.887154
11.034335 -78.499596 -44.017078
11.878532 -18.983772 -71.160057
30.028753 -88.207893 -47.752502
30.661903 21.326626 -25.454895
42.058552 20.383499 -21.872873
28.286436 -9.486557 -49.731342
4.069717 -91.523811 -63.449535
15.888468 -29.325157 -44.410141
-2.472805 -26.841705 -48.676098
17.998955 -14.698151 -62.816399
20.742580 -19.827946 -30.606440
11.034336 -93.756210 -56.062813
22.407791 8.663665 -44.033020
-13.347822 -69.424492 -60.283806
0.903973 11.196261 -17.090837
-5.365539 -111.634315 -51.630798
28.129311 7.608430 -15.562071
-0.151260 -47.686436 -72.174866
42.058556 -67.102959 -68.668518
1.748177 -65.203506 -71.779236
30.740828 -101.292900 -57.118065
13.144815 -61.404633 -72.399399
37.626514 5.275936 -32.636372
-15.979950 -122.397820 -49.346809
20.531544 -89.685211 -45.863319
34.920147 -92.639893 -70.836258
43.261848 13.306750 -11.742508
26.863010 -5.707546 -29.681683
22.219933 -42.199169 -53.343792
-11.936453 -59.505184 -63.660580
10.120852 -3.577179 -68.936806
45.013237 -94.961433 -49.517189
12.722724 -51.063217 -72.828972
23.711325 -88.207870 -68.303665
-15.606812 -49.374832 -41.289391
13.355872 -15.634762 -51.630798
55.776741 -100.026611 -51.088806
6.391253 21.748734 -5.029341
-25.899261 -118.387878 -39.831520
-2.472805 -90.318359 -42.747440
21.375742 -93.502838 -58.173302
42.397316 -48.741684 -66.615273
-11.547920 -37.114891 -49.942398
-3.832649 -35.445583 -64.293732
38.048618 -59.716217 -72.877129
19.898394 12.040451 -36.242695
5.124961 9.718922 -7.002092
46.298115 -94.539337 -64.926888
23.908308 32.395294 -12.164627
27.918247 -27.425720 -46.049656
-5.638540 -103.825516 -42.322605
22.431501 1.276939 -60.705887
-16.201471 -54.017918 -50.153458
0.270828 -33.124050 -41.809082
7.862573 3.809540 -34.324768
5.124962 19.638224 -14.640660
-16.191002 -101.475037 -40.867283
-16.190998 -89.896240 -43.111454
14.200068 -45.575951 -53.700306
7.170997 -20.039003 -62.394295
45.725166 -106.358078 -66.193169
-14.080503 -73.645485 -41.131329
-1.206513 -104.209892 -50.364502
14.200076 -71.746025 -48.299858
36.360233 -0.373276 -20.606567
24.963572 -0.833549 -52.252670
12.089578 0.975876 -16.596632
27.496164 38.996140 -21.661827
22.008892 24.281300 -24.204618
0.481865 -48.903664 -47.831913
-1.628610 -63.515133 -44.297768
7.868595 -34.601395 -45.485744
10.190144 -1.466690 -48.264732
8.501743 -34.601391 -73.444458
42.902748 -64.148270 -47.711929
30.028759 -76.178070 -75.072357
47.895664 -58.660995 -58.806458
38.385406 30.190674 -13.219860
20.304560 39.898949 -17.440842
7.446501 -12.863338 -37.770542
48.178978 -121.342552 -58.279877
24.752525 -63.093018 -75.198433
44.802193 -80.187996 -50.599247
41.003300 -110.790100 -54.090870
28.925999 -22.993698 -53.108139
0.533482 -73.856522 -41.922535
-11.836286 -41.988110 -56.695965
17.576859 -34.870499 -75.268280
16.943710 -4.632431 -64.510651
29.608736 14.573043 -30.314825
39.737007 -32.778751 -57.962250
23.732386 -27.425724 -68.092628
-8.804287 -61.826729 -40.783421
0.164673 3.387440 -19.551332
39.785194 -38.611328 -64.504784
-6.904833 -115.011086 -42.651028
44.142784 27.658073 -18.707134
0.903978 -26.870649 -56.062813
13.989014 -54.862106 -54.441044
15.677416 18.582985 -24.558342
13.989021 7.359982 -50.786602
16.770325 -7.798164 -26.093849
7.024398 9.009071 -25.882792
44.380081 12.884636 -23.639641
12.511676 26.813904 -6.152605
-15.308223 -107.835434 -58.595406
33.901535 -100.659760 -64.504784
5.547064 -19.190231 -45.932465
12.511679 6.975280 -8.261427
-20.200932 -109.686035 -45.088268
17.365814 -94.345184 -51.419735
15.888465 6.917327 -59.650658
23.486225 -63.726173 -53.599781
46.068485 -40.299721 -50.075699
30.450848 -39.666565 -74.122101
42.269604 -122.608864 -48.926819
28.551409 28.502281 -23.178490
21.375731 4.020576 -20.437222
8.079636 -85.886322 -44.052826
53.877289 -66.047699 -51.026844
7.657539 -42.546547 -50.786583
-6.355438 -77.444351 -41.711502
6.602295 -97.119125 -49.942398
10.190132 -1.734550 -29.259594
-16.010632 -77.866463 -47.409805
33.616577 -2.681480 -27.571194
48.601063 7.249290 -17.440838
30.932468 -7.587112 -42.766727
24.964344 -17.717470 -63.660576
34.038689 -31.857758 -46.821140
47.673573 -75.544930 -56.062820
-13.928535 -40.932869 -43.821976
15.466351 -14.349464 -29.681684
-10.175979 -54.440014 -40.023090
-27.829981 -111.423248 -42.344631
12.089577 -78.499596 -72.162376
17.576853 0.255852 -53.952332
-10.492673 -117.210709 -48.887157
-14.713654 -66.258751 -39.403091
5.969154 -43.465446 -72.858688
26.229866 -14.551719 -30.699322
32.781998 3.176392 -38.967850
44.876591 0.854858 -21.239731
33.027931 -104.669678 -50.786587
11.245379 -11.597045 -71.462418
-14.291555 -122.608864 -41.816559
38.681767 -52.329521 -71.933937
38.048622 -82.720581 -71.413895
35.304977 7.397369 -13.122620
19.476290 -11.808090 -48.999825
-11.547915 -100.237663 -62.460514
27.074064 -50.219028 -54.691639
46.068485 -108.482864 -58.910011
8.923840 -64.872986 -51.630795
52.611008 -112.267464 -58.487946
25.698288 -18.139576 -40.445202
12.089577 -26.370480 -38.907116
15.466366 -84.620018 -44.411430
45.827011 -64.359314 -63.027451
8.501751 -24.893120 -68.503098
-3.950149 -60.560432 -71.501350
22.058380 -12.652282 -68.514709
47.967918 21.657871 -17.018745
10.190140 1.014957 -63.238483
20.320488 -33.757198 -48.419670
40.792259 -115.433189 -48.503113
18.380514 18.371933 -7.310483
-22.311424 -97.705078 -39.908993
49.234207 -52.428383 -52.263924
4.498226 -92.217796 -43.399883
40.864914 -114.166893 -60.916946
12.089577 -16.174503 -58.806458
41.619335 -32.279854 -50.997650
38.681774 -44.942791 -47.674191
32.983429 -27.506929 -59.017513
-23.366669 -103.403404 -46.882183
-9.226402 -88.418907 -41.390865
18.210007 -66.258759 -73.724121
20.953644 -57.183647 -54.957413
24.963572 22.499138 -12.797764
39.525963 -106.569122 -48.552032
52.399956 -106.569138 -54.244064
45.435333 -81.665344 -63.564980
32.561340 -40.528015 -49.309254
-20.536980 -113.111664 -53.530235
15.677413 31.457787 -17.651886
32.139244 -46.288242 -75.901451
46.601589 -88.418900 -51.630795
18.210007 -46.842243 -74.321175
42.058548 7.608429 -27.679760
55.565697 -123.242012 -51.699043
-10.281622 -50.007961 -65.245483
6.180211 -0.148621 -20.395519
17.998955 11.407302 -9.167137
-4.233849 -42.410213 -69.781013
26.440918 -75.333862 -46.338562
-16.396288 -62.670918 -48.254013
-3.852115 -38.822380 -41.922535
22.430983 -1.888779 -25.792772
28.996628 -16.029060 -52.263935
-0.252441 7.819481 -11.109358
36.360226 20.904510 -10.705951
57.043034 -114.589005 -51.428558
-20.834074 -119.487762 -44.666168
-3.997249 -79.132736 -69.147858
35.727074 -92.217796 -48.489777
26.018824 4.459370 -48.042950
3.858662 -32.068810 -68.944939
14.411125 -84.507202 -68.514725
26.018818 -51.696358 -75.698097
47.606388 -44.942802 -54.796516
-7.537988 -31.568470 -49.309258
30.350990 -59.716232 -76.956673
31.295046 -34.504917 -69.781006
32.772392 34.622715 -21.088516
47.756878 -68.580292 -49.123959
48.812122 -100.659737 -63.696106
49.234207 -100.237656 -49.653797
25.807770 39.476849 -13.672595
-12.027260 -93.484108 -62.605358
44.802200 -55.073162 -47.966358
41.425411 -93.273056 -69.251183
-3.316998 -100.237663 -59.506001
40.013939 -0.833538 -33.691624
8.290696 -66.047714 -71.755127
13.566927 -9.064457 -46.936218
17.154755 -15.184871 -72.184334
47.967926 -90.318344 -60.163906
33.405540 -54.017910 -51.708736
-12.603159 -80.399048 -60.728378
33.616585 -60.560425 -51.165184
27.496162 -82.297661 -46.565613
18.421055 -1.767326 -70.203102
44.380085 -44.731754 -61.851658
7.446503 -20.883190 -39.926243
22.642038 -38.822380 -76.484695
17.576859 -74.911766 -74.046021
-5.427498 -72.801285 -69.441597
-19.464535 -99.604507 -52.686035
39.103855 -105.513870 -65.834518
16.732655 -23.252647 -71.680473
-7.960078 -37.874981 -59.861702
38.470711 -80.610100 -48.972767
42.269604 -77.866463 -67.848068
-4.161203 -48.741684 -43.298954
30.872952 -96.438782 -47.815994
-20.623032 -66.223045 -44.877224
15.677408 -0.170021 -60.072739
8.923827 -58.660995 -53.230610
