ply
format ascii 1.0
element vertex 400
property float x
property float y
property float z
end_header
592.000000 962.000000 561.000000
512.000000 3112.000000 470.000000
203.000000 2022.000000 489.000000
6.000000 62.000000 272.000000
921.000000 65.000000 304.000000
776.000000 2448.000000 565.000000
738.000000 1620.000000 560.000000
166.000000 2625.000000 260.000000
464.000000 481.000000 181.000000
200.000000 1385.000000 326.000000
450.000000 80.000000 709.000000
602.000000 2039.000000 847.000000
141.000000 869.000000 309.000000
380.000000 2558.000000 809.000000
788.000000 2887.000000 763.000000
760.000000 546.000000 499.000000
542.000000 86.000000 24.000000
583.000000 2727.000000 302.000000
322.000000 1643.000000 637.000000
435.000000 2337.000000 369.000000
594.000000 1308.000000 350.000000
396.000000 1760.000000 276.000000
271.000000 279.000000 435.000000
575.000000 2009.000000 480.000000
247.000000 2981.000000 257.000000
268.000000 1112.000000 540.000000
507.000000 827.000000 246.000000
132.000000 2383.000000 543.000000
631.000000 223.000000 446.000000
321.000000 621.000000 459.000000
403.000000 2808.000000 581.000000
531.000000 1380.000000 677.000000
395.000000 2237.000000 682.000000
250.000000 215.000000 114.000000
640.000000 2369.000000 845.000000
140.000000 33.000000 593.000000
808.000000 19.000000 607.000000
154.000000 515.000000 214.000000
766.000000 2930.000000 454.000000
366.000000 1104.000000 248.000000
355.000000 1925.000000 728.000000
127.000000 1713.000000 426.000000
747.000000 1209.000000 576.000000
762.000000 811.000000 381.000000
778.000000 2202.000000 411.000000
651.000000 2655.000000 872.000000
591.000000 1776.000000 741.000000
701.000000 247.000000 184.000000
280.000000 1377.000000 582.000000
569.000000 1575.000000 357.000000
555.000000 702.000000 553.000000
559.000000 2999.000000 701.000000
677.000000 2199.000000 651.000000
516.000000 451.000000 490.000000
246.000000 2615.000000 509.000000
661.000000 1046.000000 327.000000
359.000000 877.000000 489.000000
794.000000 2706.000000 577.000000
662.000000 605.000000 274.000000
628.000000 2492.000000 371.000000
404.000000 2561.000000 278.000000
295.000000 712.000000 202.000000
482.000000 2946.000000 295.000000
388.000000 2107.000000 369.000000
632.000000 1787.000000 436.000000
479.000000 1158.000000 629.000000
821.000000 988.000000 551.000000
768.000000 3079.000000 630.000000
311.000000 2993.000000 478.000000
342.000000 2775.000000 227.000000
361.000000 1537.000000 280.000000
464.000000 306.000000 324.000000
337.000000 2443.000000 620.000000
765.000000 380.000000 351.000000
196.000000 2801.000000 392.000000
205.000000 1828.000000 597.000000
461.000000 281.000000 85.000000
472.000000 2755.000000 783.000000
181.000000 1167.000000 346.000000
715.000000 1413.000000 499.000000
235.000000 2447.000000 363.000000
228.000000 1883.000000 327.000000
840.000000 206.000000 487.000000
459.000000 1071.000000 435.000000
393.000000 1311.000000 282.000000
503.000000 1584.000000 736.000000
439.000000 179.000000 522.000000
610.000000 2311.000000 484.000000
127.000000 236.000000 287.000000
153.000000 1513.000000 486.000000
241.000000 2245.000000 430.000000
641.000000 138.000000 640.000000
494.000000 2216.000000 862.000000
644.000000 1956.000000 664.000000
454.000000 2620.000000 632.000000
325.000000 906.000000 243.000000
291.000000 458.000000 350.000000
745.000000 2569.000000 719.000000
764.000000 64.000000 183.000000
443.000000 1922.000000 367.000000
292.000000 401.000000 147.000000
485.000000 595.000000 368.000000
90.000000 120.000000 433.000000
292.000000 2084.000000 643.000000
396.000000 2371.000000 814.000000
639.000000 424.000000 218.000000
130.000000 682.000000 297.000000
222.000000 2307.000000 698.000000
256.000000 1002.000000 390.000000
625.000000 2822.000000 701.000000
700.000000 2657.000000 426.000000
717.000000 1800.000000 597.000000
359.000000 88.000000 42.000000
137.000000 76.000000 146.000000
377.000000 2087.000000 811.000000
295.000000 123.000000 618.000000
866.000000 2881.000000 596.000000
231.000000 1662.000000 281.000000
159.000000 1290.000000 474.000000
557.000000 2521.000000 800.000000
763.000000 729.000000 538.000000
657.000000 1503.000000 666.000000
473.000000 769.000000 409.000000
813.000000 210.000000 313.000000
465.000000 662.000000 208.000000
621.000000 3001.000000 388.000000
417.000000 1761.000000 723.000000
499.000000 996.000000 284.000000
234.000000 770.000000 439.000000
626.000000 1118.000000 497.000000
396.000000 1488.000000 644.000000
517.000000 1164.000000 301.000000
452.000000 2972.000000 572.000000
388.000000 3077.000000 346.000000
533.000000 2168.000000 437.000000
111.000000 2557.000000 404.000000
692.000000 2365.000000 686.000000
872.000000 23.000000 455.000000
493.000000 1434.000000 319.000000
634.000000 827.000000 482.000000
170.000000 1665.000000 574.000000
323.000000 557.000000 173.000000
641.000000 889.000000 306.000000
626.000000 611.000000 443.000000
757.000000 2292.000000 541.000000
508.000000 1958.000000 749.000000
733.000000 2104.000000 538.000000
664.000000 2847.000000 365.000000
154.000000 2228.000000 560.000000
645.000000 2197.000000 805.000000
618.000000 3096.000000 585.000000
611.000000 1250.000000 643.000000
408.000000 1297.000000 625.000000
586.000000 4.000000 694.000000
323.000000 2742.000000 467.000000
142.000000 1863.000000 458.000000
496.000000 843.000000 557.000000
629.000000 374.000000 422.000000
525.000000 1723.000000 348.000000
756.000000 961.000000 416.000000
183.000000 379.000000 278.000000
261.000000 604.000000 321.000000
760.000000 651.000000 386.000000
735.000000 2720.000000 718.000000
441.000000 453.000000 343.000000
702.000000 1269.000000 446.000000
638.000000 1652.000000 672.000000
506.000000 301.000000 469.000000
198.000000 176.000000 518.000000
207.000000 1533.000000 349.000000
163.000000 1031.000000 279.000000
711.000000 2066.000000 736.000000
584.000000 202.000000 104.000000
459.000000 1022.000000 576.000000
489.000000 927.000000 437.000000
452.000000 2489.000000 698.000000
629.000000 747.000000 270.000000
261.000000 1521.000000 583.000000
490.000000 2872.000000 682.000000
700.000000 2999.000000 736.000000
760.000000 2785.000000 457.000000
618.000000 1444.000000 394.000000
757.000000 372.000000 495.000000
276.000000 2014.000000 361.000000
764.000000 1129.000000 458.000000
493.000000 2463.000000 332.000000
658.000000 1644.000000 444.000000
260.000000 1260.000000 273.000000
548.000000 2590.000000 303.000000
690.000000 1370.000000 632.000000
453.000000 2692.000000 260.000000
369.000000 2914.000000 217.000000
331.000000 5.000000 686.000000
214.000000 2496.000000 577.000000
710.000000 3055.000000 486.000000
513.000000 2410.000000 888.000000
653.000000 1902.000000 525.000000
732.000000 2583.000000 554.000000
555.000000 234.000000 581.000000
747.000000 870.000000 551.000000
210.000000 168.000000 378.000000
743.000000 518.000000 351.000000
270.000000 1950.000000 617.000000
219.000000 2937.000000 388.000000
562.000000 320.000000 171.000000
638.000000 1176.000000 368.000000
655.000000 77.000000 101.000000
302.000000 2653.000000 274.000000
655.000000 2439.000000 499.000000
840.000000 3004.000000 542.000000
295.000000 1243.000000 570.000000
503.000000 583.000000 516.000000
759.000000 142.000000 575.000000
606.000000 2146.000000 550.000000
520.000000 2643.000000 842.000000
122.000000 2689.000000 383.000000
282.000000 2219.000000 613.000000
389.000000 227.000000 401.000000
598.000000 2768.000000 823.000000
264.000000 872.000000 358.000000
480.000000 2814.000000 303.000000
248.000000 2850.000000 281.000000
158.000000 2354.000000 415.000000
348.000000 1008.000000 507.000000
367.000000 362.000000 400.000000
366.000000 2448.000000 357.000000
457.000000 1623.000000 300.000000
337.000000 2570.000000 592.000000
358.000000 745.000000 471.000000
323.000000 1821.000000 657.000000
275.000000 2118.000000 438.000000
559.000000 1894.000000 417.000000
357.000000 2234.000000 374.000000
689.000000 2463.000000 770.000000
510.000000 2737.000000 587.000000
576.000000 540.000000 204.000000
291.000000 2867.000000 468.000000
314.000000 1416.000000 277.000000
232.000000 818.000000 232.000000
719.000000 2315.000000 420.000000
402.000000 526.000000 439.000000
701.000000 1027.000000 544.000000
180.000000 291.000000 187.000000
818.000000 2969.000000 672.000000
592.000000 1105.000000 617.000000
464.000000 1867.000000 675.000000
387.000000 791.000000 233.000000
177.000000 1166.000000 471.000000
237.000000 900.000000 481.000000
266.000000 729.000000 326.000000
487.000000 2036.000000 394.000000
509.000000 3049.000000 363.000000
568.000000 2386.000000 392.000000
867.000000 132.000000 392.000000
319.000000 179.000000 495.000000
491.000000 2088.000000 863.000000
665.000000 491.000000 445.000000
202.000000 1764.000000 342.000000
679.000000 1525.000000 463.000000
204.000000 631.000000 212.000000
300.000000 2342.000000 373.000000
814.000000 2802.000000 674.000000
348.000000 1866.000000 313.000000
341.000000 296.000000 109.000000
245.000000 84.000000 85.000000
379.000000 2678.000000 554.000000
452.000000 167.000000 45.000000
705.000000 41.000000 674.000000
226.000000 2130.000000 548.000000
317.000000 2377.000000 720.000000
398.000000 676.000000 381.000000
213.000000 2732.000000 285.000000
243.000000 2372.000000 600.000000
433.000000 2648.000000 747.000000
259.000000 2544.000000 297.000000
186.000000 1401.000000 511.000000
280.000000 1022.000000 257.000000
413.000000 391.000000 122.000000
79.000000 149.000000 222.000000
801.000000 1103.000000 569.000000
368.000000 1152.000000 588.000000
657.000000 2066.000000 624.000000
507.000000 3066.000000 616.000000
808.000000 286.000000 406.000000
391.000000 982.000000 401.000000
514.000000 1697.000000 702.000000
699.000000 2540.000000 450.000000
700.000000 2478.000000 655.000000
491.000000 143.000000 620.000000
667.000000 716.000000 472.000000
253.000000 1140.000000 259.000000
348.000000 1654.000000 275.000000
111.000000 1764.000000 529.000000
717.000000 341.000000 250.000000
134.000000 2488.000000 493.000000
720.000000 1504.000000 569.000000
400.000000 2213.000000 796.000000
275.000000 337.000000 336.000000
180.000000 485.000000 322.000000
684.000000 2192.000000 480.000000
437.000000 2750.000000 674.000000
699.000000 1720.000000 518.000000
497.000000 2317.000000 810.000000
525.000000 2281.000000 415.000000
393.000000 3058.000000 528.000000
217.000000 2702.000000 443.000000
279.000000 517.000000 446.000000
364.000000 2907.000000 544.000000
186.000000 1280.000000 364.000000
516.000000 383.000000 389.000000
638.000000 2335.000000 590.000000
153.000000 1603.000000 418.000000
549.000000 1489.000000 696.000000
506.000000 1310.000000 281.000000
253.000000 1730.000000 621.000000
645.000000 1844.000000 670.000000
416.000000 1202.000000 273.000000
481.000000 1824.000000 330.000000
293.000000 3013.000000 354.000000
391.000000 995.000000 258.000000
830.000000 111.000000 260.000000
570.000000 2903.000000 348.000000
658.000000 206.000000 552.000000
192.000000 1922.000000 537.000000
686.000000 2566.000000 817.000000
356.000000 2139.000000 714.000000
413.000000 1593.000000 673.000000
573.000000 660.000000 233.000000
725.000000 1313.000000 545.000000
348.000000 194.000000 70.000000
644.000000 1219.000000 541.000000
317.000000 2029.000000 734.000000
441.000000 2470.000000 832.000000
232.000000 36.000000 653.000000
220.000000 929.000000 260.000000
736.000000 243.000000 475.000000
761.000000 2131.000000 646.000000
464.000000 698.000000 495.000000
88.000000 34.000000 498.000000
410.000000 858.000000 396.000000
209.000000 1945.000000 414.000000
661.000000 2298.000000 767.000000
397.000000 3007.000000 263.000000
506.000000 1268.000000 658.000000
289.000000 1754.000000 279.000000
73.000000 150.000000 329.000000
221.000000 1030.000000 487.000000
376.000000 1111.000000 489.000000
680.000000 2895.000000 756.000000
156.000000 189.000000 160.000000
364.000000 2467.000000 756.000000
716.000000 730.000000 329.000000
668.000000 2738.000000 365.000000
629.000000 2600.000000 372.000000
809.000000 836.000000 472.000000
826.000000 2799.000000 538.000000
765.000000 459.000000 436.000000
787.000000 2194.000000 517.000000
724.000000 1701.000000 632.000000
767.000000 2391.000000 477.000000
184.000000 1442.000000 413.000000
31.000000 51.000000 380.000000
835.000000 99.000000 517.000000
431.000000 899.000000 248.000000
615.000000 1016.000000 475.000000
379.000000 2004.000000 353.000000
536.000000 197.000000 486.000000
749.000000 2642.000000 645.000000
666.000000 926.000000 498.000000
158.000000 582.000000 293.000000
698.000000 145.000000 166.000000
388.000000 2832.000000 477.000000
451.000000 2190.000000 379.000000
679.000000 504.000000 269.000000
191.000000 1080.000000 403.000000
420.000000 2005.000000 727.000000
493.000000 234.000000 393.000000
613.000000 1977.000000 759.000000
595.000000 2276.000000 846.000000
432.000000 1393.000000 652.000000
557.000000 1871.000000 727.000000
175.000000 773.000000 314.000000
564.000000 1071.000000 310.000000
203.000000 266.000000 347.000000
246.000000 486.000000 183.000000
545.000000 421.000000 182.000000
583.000000 527.000000 491.000000
619.000000 2105.000000 773.000000
548.000000 97.000000 689.000000
669.000000 1362.000000 422.000000
139.000000 2453.000000 399.000000
419.000000 572.000000 198.000000
506.000000 501.000000 404.000000
720.000000 1055.000000 407.000000
394.000000 126.000000 636.000000
731.000000 641.000000 492.000000
594.000000 2250.000000 561.000000
767.000000 183.000000 229.000000
599.000000 3064.000000 466.000000
798.000000 738.000000 438.000000
