ply
format ascii 1.0
element vertex 400
property float x
property float y
property float z
end_header
1465.000000 480.000000 130.000000
2824.000000 0.000000 1663.000000
1.000000 2.000000 1554.000000
1.000000 1502.000000 1.000000
2800.000000 1448.000000 14.000000
1372.000000 641.000000 1631.000000
36.000000 0.000000 51.000000
2826.000000 0.000000 8.000000
1974.000000 0.000000 973.000000
1098.000000 1501.000000 1.000000
875.000000 0.000000 906.000000
561.000000 765.000000 329.000000
2234.000000 747.000000 529.000000
2247.000000 656.000000 1614.000000
1946.000000 1359.000000 0.000000
2794.000000 75.000000 836.000000
836.000000 0.000000 7.000000
2073.000000 0.000000 201.000000
759.000000 62.000000 1662.000000
124.000000 61.000000 807.000000
1731.000000 0.000000 1663.000000
2736.000000 722.000000 0.000000
1417.000000 361.000000 1030.000000
6.000000 774.000000 0.000000
1527.000000 0.000000 529.000000
753.000000 682.000000 1637.000000
534.000000 505.000000 877.000000
1050.000000 899.000000 0.000000
548.000000 1263.000000 0.000000
2039.000000 562.000000 0.000000
2277.000000 74.000000 1469.000000
1482.000000 1161.000000 220.000000
978.000000 410.000000 376.000000
1240.000000 0.000000 1404.000000
555.000000 62.000000 470.000000
2391.000000 1201.000000 273.000000
1906.000000 465.000000 1240.000000
433.000000 360.000000 0.000000
438.000000 0.000000 1237.000000
930.000000 428.000000 1214.000000
1598.000000 0.000000 0.000000
2335.000000 65.000000 628.000000
2459.000000 319.000000 134.000000
210.000000 1040.000000 453.000000
1325.000000 698.000000 507.000000
829.000000 1123.000000 319.000000
1796.000000 935.000000 0.000000
1080.000000 0.000000 512.000000
2656.000000 0.000000 1251.000000
1809.000000 639.000000 1629.000000
2244.000000 335.000000 1008.000000
1640.000000 0.000000 1243.000000
2704.000000 0.000000 419.000000
2332.000000 876.000000 0.000000
822.000000 538.000000 0.000000
1217.000000 171.000000 0.000000
1925.000000 117.000000 576.000000
353.000000 196.000000 1663.000000
1287.000000 0.000000 871.000000
1828.000000 806.000000 485.000000
2342.000000 1499.000000 0.000000
1509.000000 1495.000000 0.000000
165.000000 1139.000000 0.000000
2566.000000 850.000000 337.000000
60.000000 401.000000 120.000000
163.000000 61.000000 417.000000
867.000000 0.000000 1296.000000
0.000000 0.000000 1168.000000
2648.000000 1095.000000 0.000000
425.000000 411.000000 381.000000
1970.000000 454.000000 360.000000
497.000000 0.000000 855.000000
1426.000000 840.000000 0.000000
409.000000 0.000000 125.000000
382.000000 819.000000 0.000000
2826.000000 367.000000 83.000000
1740.000000 270.000000 862.000000
2399.000000 0.000000 986.000000
1555.000000 502.000000 1343.000000
1877.000000 234.000000 0.000000
2074.000000 932.000000 249.000000
1080.000000 299.000000 908.000000
2370.000000 0.000000 1.000000
1057.000000 606.000000 1487.000000
704.000000 948.000000 0.000000
611.000000 308.000000 1151.000000
1970.000000 78.000000 1311.000000
1165.000000 636.000000 195.000000
2241.000000 469.000000 1325.000000
1734.000000 138.000000 295.000000
890.000000 1232.000000 0.000000
374.000000 270.000000 691.000000
1225.000000 1187.000000 0.000000
1316.000000 0.000000 269.000000
298.000000 1437.000000 127.000000
1567.000000 756.000000 291.000000
845.000000 117.000000 313.000000
875.000000 776.000000 246.000000
2215.000000 1178.000000 0.000000
707.000000 207.000000 725.000000
435.000000 1047.000000 221.000000
1418.000000 74.000000 1663.000000
2400.000000 0.000000 320.000000
1722.000000 617.000000 0.000000
1245.000000 461.000000 1277.000000
1075.000000 65.000000 1662.000000
1594.000000 0.000000 934.000000
2512.000000 1.000000 1663.000000
2033.000000 74.000000 1662.000000
2470.000000 631.000000 132.000000
1120.000000 64.000000 1125.000000
2187.000000 254.000000 0.000000
688.000000 544.000000 1368.000000
1994.000000 588.000000 635.000000
1466.000000 210.000000 742.000000
2826.000000 194.000000 1410.000000
745.000000 1498.000000 0.000000
1674.000000 1231.000000 0.000000
2271.000000 255.000000 407.000000
697.000000 302.000000 130.000000
2032.000000 245.000000 820.000000
177.000000 914.000000 190.000000
515.000000 0.000000 1517.000000
290.000000 577.000000 128.000000
1095.000000 435.000000 0.000000
1508.000000 506.000000 412.000000
2215.000000 0.000000 1198.000000
246.000000 63.000000 1431.000000
575.000000 571.000000 128.000000
2670.000000 1193.000000 261.000000
1399.000000 74.000000 1122.000000
1460.000000 202.000000 132.000000
2025.000000 581.000000 1464.000000
331.000000 0.000000 632.000000
416.000000 246.000000 964.000000
807.000000 327.000000 956.000000
808.000000 0.000000 565.000000
1935.000000 694.000000 221.000000
1679.000000 365.000000 1119.000000
1058.000000 0.000000 171.000000
1194.000000 181.000000 686.000000
671.000000 0.000000 1092.000000
1915.000000 1133.000000 153.000000
2601.000000 70.000000 148.000000
2330.000000 974.000000 411.000000
2229.000000 708.000000 260.000000
242.000000 0.000000 1044.000000
2560.000000 1407.000000 134.000000
213.000000 201.000000 0.000000
2595.000000 0.000000 668.000000
2050.000000 832.000000 0.000000
2136.000000 0.000000 461.000000
2103.000000 0.000000 741.000000
319.000000 799.000000 432.000000
1724.000000 0.000000 703.000000
2251.000000 480.000000 131.000000
1715.000000 392.000000 132.000000
1302.000000 1404.000000 129.000000
915.000000 248.000000 0.000000
1836.000000 0.000000 99.000000
657.000000 0.000000 187.000000
1919.000000 312.000000 1037.000000
1255.000000 972.000000 130.000000
2611.000000 469.000000 0.000000
2160.000000 1387.000000 132.000000
1585.000000 83.000000 1476.000000
1044.000000 647.000000 418.000000
458.000000 1002.000000 467.000000
0.000000 2.000000 595.000000
2769.000000 926.000000 137.000000
2826.000000 3.000000 1071.000000
947.000000 178.000000 678.000000
1313.000000 620.000000 0.000000
1748.000000 1425.000000 127.000000
1593.000000 962.000000 131.000000
2449.000000 1239.000000 0.000000
2440.000000 985.000000 183.000000
2513.000000 68.000000 1433.000000
689.000000 946.000000 238.000000
214.000000 0.000000 1660.000000
1027.000000 663.000000 0.000000
1551.000000 0.000000 235.000000
1042.000000 1103.000000 127.000000
81.000000 1318.000000 129.000000
2024.000000 364.000000 131.000000
1438.000000 1082.000000 0.000000
1591.000000 627.000000 1541.000000
1070.000000 0.000000 770.000000
1912.000000 0.000000 372.000000
1776.000000 81.000000 1070.000000
1304.000000 68.000000 506.000000
1776.000000 558.000000 1411.000000
645.000000 64.000000 1333.000000
2824.000000 67.000000 231.000000
921.000000 1422.000000 132.000000
2438.000000 68.000000 1209.000000
1369.000000 0.000000 36.000000
2823.000000 63.000000 607.000000
2651.000000 241.000000 0.000000
1710.000000 1186.000000 246.000000
2041.000000 671.000000 424.000000
1269.000000 359.000000 130.000000
2566.000000 877.000000 0.000000
2620.000000 64.000000 986.000000
2267.000000 119.000000 169.000000
1351.000000 770.000000 209.000000
390.000000 1089.000000 0.000000
1799.000000 0.000000 1444.000000
703.000000 1154.000000 129.000000
877.000000 548.000000 223.000000
1701.000000 571.000000 306.000000
2485.000000 212.000000 334.000000
371.000000 0.000000 349.000000
689.000000 722.000000 0.000000
1647.000000 221.000000 0.000000
2240.000000 666.000000 0.000000
644.000000 486.000000 1663.000000
2188.000000 69.000000 947.000000
1027.000000 66.000000 1442.000000
0.000000 1.000000 273.000000
649.000000 125.000000 0.000000
205.000000 59.000000 196.000000
2728.000000 0.000000 1462.000000
1295.000000 248.000000 880.000000
1123.000000 374.000000 1113.000000
369.000000 777.000000 218.000000
2244.000000 210.000000 769.000000
2824.000000 1228.000000 5.000000
2040.000000 86.000000 0.000000
110.000000 580.000000 1.000000
1735.000000 784.000000 148.000000
1145.000000 120.000000 340.000000
2108.000000 423.000000 1156.000000
1314.000000 522.000000 311.000000
1363.000000 569.000000 1425.000000
620.000000 0.000000 674.000000
492.000000 304.000000 202.000000
515.000000 1435.000000 130.000000
881.000000 957.000000 127.000000
2044.000000 1047.000000 0.000000
1443.000000 0.000000 1329.000000
1103.000000 1309.000000 127.000000
2238.000000 1054.000000 175.000000
1723.000000 79.000000 501.000000
1434.000000 1295.000000 0.000000
1501.000000 0.000000 742.000000
2759.000000 561.000000 136.000000
608.000000 306.000000 884.000000
342.000000 156.000000 490.000000
267.000000 358.000000 130.000000
1885.000000 91.000000 805.000000
1080.000000 266.000000 131.000000
2230.000000 0.000000 1663.000000
2507.000000 66.000000 489.000000
2081.000000 0.000000 1472.000000
350.000000 1225.000000 154.000000
907.000000 65.000000 1101.000000
49.000000 63.000000 1361.000000
1865.000000 448.000000 0.000000
1518.000000 652.000000 0.000000
0.000000 0.000000 961.000000
851.000000 574.000000 1490.000000
2.000000 196.000000 1.000000
2453.000000 67.000000 799.000000
2407.000000 468.000000 0.000000
244.000000 0.000000 3.000000
445.000000 157.000000 0.000000
455.000000 62.000000 1044.000000
201.000000 0.000000 1243.000000
1107.000000 445.000000 220.000000
688.000000 64.000000 870.000000
65.000000 968.000000 32.000000
875.000000 797.000000 0.000000
1227.000000 801.000000 0.000000
861.000000 565.000000 424.000000
706.000000 643.000000 264.000000
1120.000000 829.000000 174.000000
778.000000 0.000000 1474.000000
340.000000 120.000000 817.000000
434.000000 626.000000 0.000000
2111.000000 547.000000 254.000000
153.000000 728.000000 127.000000
1872.000000 746.000000 0.000000
735.000000 455.000000 1197.000000
2608.000000 769.000000 161.000000
700.000000 1353.000000 126.000000
1428.000000 417.000000 1219.000000
1552.000000 259.000000 919.000000
2358.000000 1353.000000 132.000000
246.000000 1088.000000 257.000000
1919.000000 876.000000 142.000000
1417.000000 341.000000 0.000000
628.000000 432.000000 0.000000
2375.000000 196.000000 0.000000
1657.000000 187.000000 705.000000
2399.000000 803.000000 242.000000
1037.000000 95.000000 0.000000
1268.000000 171.000000 189.000000
1572.000000 1342.000000 129.000000
1517.000000 696.000000 476.000000
1250.000000 0.000000 1598.000000
2640.000000 1289.000000 0.000000
2149.000000 130.000000 605.000000
1989.000000 891.000000 418.000000
2461.000000 1044.000000 0.000000
1178.000000 644.000000 1632.000000
1576.000000 399.000000 267.000000
1617.000000 821.000000 0.000000
1261.000000 0.000000 681.000000
929.000000 388.000000 131.000000
2049.000000 73.000000 1133.000000
1065.000000 496.000000 1330.000000
708.000000 0.000000 375.000000
2077.000000 1497.000000 1.000000
1779.000000 1001.000000 177.000000
1048.000000 65.000000 948.000000
2203.000000 849.000000 136.000000
1602.000000 467.000000 0.000000
784.000000 134.000000 134.000000
220.000000 1320.000000 0.000000
2086.000000 1213.000000 159.000000
253.000000 959.000000 0.000000
2092.000000 499.000000 501.000000
525.000000 154.000000 726.000000
2190.000000 292.000000 184.000000
990.000000 0.000000 346.000000
1338.000000 511.000000 498.000000
1573.000000 111.000000 386.000000
515.000000 950.000000 0.000000
947.000000 650.000000 1631.000000
1923.000000 515.000000 171.000000
400.000000 2.000000 1663.000000
2279.000000 0.000000 798.000000
2097.000000 687.000000 133.000000
1823.000000 0.000000 1234.000000
917.000000 0.000000 1594.000000
2536.000000 1149.000000 134.000000
2163.000000 113.000000 319.000000
1262.000000 0.000000 1220.000000
1818.000000 1116.000000 0.000000
1719.000000 458.000000 1270.000000
412.000000 376.000000 837.000000
921.000000 232.000000 851.000000
2823.000000 43.000000 1309.000000
2191.000000 0.000000 53.000000
1578.000000 84.000000 1094.000000
2772.000000 1107.000000 134.000000
894.000000 0.000000 724.000000
1388.000000 75.000000 1485.000000
516.000000 885.000000 202.000000
2826.000000 198.000000 1.000000
1138.000000 496.000000 390.000000
1622.000000 577.000000 144.000000
1045.000000 0.000000 1276.000000
961.000000 336.000000 1047.000000
1190.000000 0.000000 45.000000
2068.000000 635.000000 1629.000000
1771.000000 0.000000 911.000000
1871.000000 81.000000 1588.000000
2203.000000 546.000000 1481.000000
2063.000000 478.000000 1323.000000
856.000000 947.000000 303.000000
2654.000000 360.000000 134.000000
163.000000 62.000000 632.000000
528.000000 62.000000 294.000000
394.000000 1354.000000 0.000000
1431.000000 77.000000 940.000000
2668.000000 70.000000 1615.000000
2755.000000 1327.000000 135.000000
1987.000000 191.000000 134.000000
331.000000 190.000000 131.000000
1762.000000 206.000000 133.000000
1873.000000 604.000000 359.000000
658.000000 789.000000 162.000000
2632.000000 1498.000000 0.000000
1341.000000 1215.000000 130.000000
954.000000 154.000000 180.000000
1425.000000 985.000000 176.000000
1698.000000 717.000000 403.000000
2561.000000 702.000000 0.000000
317.000000 937.000000 547.000000
2147.000000 424.000000 0.000000
830.000000 1068.000000 0.000000
1263.000000 0.000000 1043.000000
188.000000 893.000000 362.000000
1842.000000 1498.000000 0.000000
2607.000000 988.000000 136.000000
2211.000000 1001.000000 0.000000
2573.000000 0.000000 306.000000
2543.000000 0.000000 1.000000
2309.000000 0.000000 470.000000
1655.000000 1056.000000 0.000000
243.000000 470.000000 0.000000
528.000000 1.000000 0.000000
431.000000 476.000000 128.000000
2077.000000 323.000000 968.000000
584.000000 62.000000 1662.000000
879.000000 0.000000 191.000000
688.000000 124.000000 576.000000
268.000000 689.000000 0.000000
