ply
format ascii 1.0
element vertex 400
property float x
property float y
property float z
end_header
194.000000 875.000000 69.000000
29.000000 2.000000 159.000000
7.000000 461.000000 141.000000
198.000000 237.000000 69.000000
199.000000 634.000000 166.000000
28.000000 989.000000 180.000000
9.000000 756.000000 132.000000
3.000000 207.000000 134.000000
203.000000 442.000000 83.000000
179.000000 42.000000 36.000000
69.000000 604.000000 25.000000
121.000000 330.000000 212.000000
57.000000 337.000000 21.000000
147.000000 127.000000 196.000000
122.000000 850.000000 225.000000
191.000000 993.000000 182.000000
42.000000 609.000000 195.000000
92.000000 995.000000 32.000000
168.000000 724.000000 41.000000
79.000000 158.000000 7.000000
139.000000 491.000000 213.000000
55.000000 857.000000 41.000000
42.000000 17.000000 20.000000
89.000000 469.000000 14.000000
171.000000 1.000000 162.000000
204.000000 767.000000 162.000000
97.000000 723.000000 221.000000
188.000000 567.000000 56.000000
10.000000 334.000000 149.000000
19.000000 871.000000 163.000000
2.000000 97.000000 95.000000
205.000000 336.000000 131.000000
55.000000 716.000000 36.000000
176.000000 236.000000 181.000000
204.000000 131.000000 101.000000
195.000000 987.000000 71.000000
165.000000 354.000000 30.000000
8.000000 562.000000 104.000000
74.000000 236.000000 207.000000
43.000000 125.000000 187.000000
21.000000 943.000000 87.000000
202.000000 889.000000 171.000000
116.000000 254.000000 8.000000
100.000000 48.000000 101.000000
110.000000 952.000000 229.000000
69.000000 417.000000 209.000000
205.000000 530.000000 148.000000
110.000000 968.000000 127.000000
24.000000 246.000000 45.000000
9.000000 661.000000 104.000000
133.000000 587.000000 217.000000
175.000000 406.000000 189.000000
21.000000 417.000000 57.000000
99.000000 46.000000 204.000000
138.000000 812.000000 27.000000
51.000000 517.000000 200.000000
50.000000 797.000000 203.000000
166.000000 163.000000 27.000000
124.000000 912.000000 27.000000
201.000000 651.000000 79.000000
105.000000 74.000000 2.000000
201.000000 791.000000 81.000000
28.000000 690.000000 180.000000
139.000000 647.000000 24.000000
26.000000 499.000000 56.000000
165.000000 492.000000 32.000000
172.000000 703.000000 200.000000
15.000000 167.000000 56.000000
203.000000 52.000000 111.000000
30.000000 786.000000 63.000000
2.000000 16.000000 87.000000
150.000000 779.000000 216.000000
37.000000 98.000000 27.000000
9.000000 314.000000 75.000000
104.000000 395.000000 11.000000
109.000000 541.000000 17.000000
209.000000 721.000000 104.000000
65.000000 896.000000 215.000000
132.000000 874.000000 156.000000
212.000000 947.000000 129.000000
54.000000 305.000000 200.000000
98.000000 650.000000 219.000000
120.000000 5.000000 16.000000
203.000000 197.000000 128.000000
202.000000 460.000000 153.000000
14.000000 845.000000 98.000000
177.000000 69.000000 173.000000
128.000000 193.000000 207.000000
197.000000 306.000000 68.000000
4.000000 396.000000 120.000000
16.000000 69.000000 156.000000
211.000000 830.000000 136.000000
163.000000 424.000000 30.000000
176.000000 304.000000 183.000000
209.000000 590.000000 116.000000
204.000000 268.000000 129.000000
15.000000 268.000000 160.000000
157.000000 906.000000 217.000000
203.000000 509.000000 85.000000
110.000000 752.000000 22.000000
201.000000 377.000000 80.000000
61.000000 922.000000 40.000000
183.000000 831.000000 195.000000
185.000000 105.000000 45.000000
38.000000 655.000000 47.000000
38.000000 189.000000 184.000000
15.000000 933.000000 151.000000
7.000000 144.000000 138.000000
117.000000 318.000000 10.000000
128.000000 268.000000 208.000000
135.000000 969.000000 69.000000
44.000000 999.000000 72.000000
19.000000 559.000000 166.000000
185.000000 576.000000 185.000000
16.000000 720.000000 83.000000
26.000000 386.000000 177.000000
34.000000 559.000000 48.000000
206.000000 400.000000 136.000000
2.000000 259.000000 100.000000
66.000000 217.000000 12.000000
177.000000 930.000000 50.000000
191.000000 146.000000 158.000000
10.000000 614.000000 143.000000
15.000000 811.000000 156.000000
157.000000 644.000000 208.000000
77.000000 802.000000 29.000000
127.000000 432.000000 214.000000
189.000000 3.000000 80.000000
145.000000 588.000000 19.000000
49.000000 49.000000 71.000000
14.000000 990.000000 122.000000
138.000000 966.000000 179.000000
168.000000 270.000000 31.000000
78.000000 567.000000 216.000000
63.000000 279.000000 16.000000
70.000000 47.000000 151.000000
205.000000 691.000000 154.000000
128.000000 47.000000 152.000000
94.000000 105.000000 205.000000
37.000000 462.000000 190.000000
123.000000 196.000000 8.000000
76.000000 995.000000 212.000000
105.000000 693.000000 20.000000
71.000000 359.000000 208.000000
199.000000 180.000000 71.000000
46.000000 740.000000 200.000000
17.000000 611.000000 76.000000
128.000000 126.000000 7.000000
125.000000 50.000000 50.000000
86.000000 473.000000 216.000000
83.000000 160.000000 205.000000
6.000000 506.000000 108.000000
109.000000 859.000000 24.000000
191.000000 939.000000 190.000000
211.000000 894.000000 117.000000
163.000000 968.000000 116.000000
21.000000 363.000000 54.000000
100.000000 800.000000 223.000000
50.000000 947.000000 206.000000
126.000000 1.000000 192.000000
27.000000 892.000000 71.000000
72.000000 2.000000 191.000000
58.000000 967.000000 142.000000
168.000000 216.000000 30.000000
176.000000 524.000000 192.000000
61.000000 424.000000 22.000000
184.000000 356.000000 176.000000
152.000000 48.000000 95.000000
64.000000 515.000000 24.000000
9.000000 458.000000 88.000000
70.000000 843.000000 217.000000
135.000000 380.000000 211.000000
178.000000 617.000000 47.000000
17.000000 507.000000 162.000000
53.000000 73.000000 192.000000
9.000000 703.000000 134.000000
85.000000 968.000000 81.000000
6.000000 212.000000 79.000000
170.000000 775.000000 43.000000
180.000000 829.000000 52.000000
120.000000 538.000000 218.000000
156.000000 873.000000 36.000000
171.000000 456.000000 193.000000
172.000000 186.000000 182.000000
12.000000 894.000000 119.000000
199.000000 99.000000 139.000000
143.000000 989.000000 223.000000
152.000000 83.000000 15.000000
205.000000 995.000000 119.000000
174.000000 675.000000 45.000000
136.000000 78.000000 199.000000
158.000000 541.000000 27.000000
66.000000 686.000000 211.000000
80.000000 651.000000 23.000000
131.000000 686.000000 219.000000
11.000000 797.000000 106.000000
32.000000 47.000000 116.000000
76.000000 49.000000 31.000000
111.000000 900.000000 227.000000
3.000000 350.000000 105.000000
91.000000 966.000000 176.000000
135.000000 459.000000 17.000000
210.000000 655.000000 125.000000
199.000000 8.000000 125.000000
2.000000 171.000000 101.000000
77.000000 112.000000 7.000000
120.000000 958.000000 27.000000
31.000000 909.000000 187.000000
179.000000 749.000000 196.000000
205.000000 836.000000 91.000000
12.000000 659.000000 150.000000
36.000000 457.000000 41.000000
211.000000 765.000000 117.000000
204.000000 929.000000 88.000000
142.000000 733.000000 217.000000
143.000000 998.000000 35.000000
2.000000 301.000000 119.000000
13.000000 74.000000 57.000000
23.000000 769.000000 173.000000
198.000000 68.000000 69.000000
195.000000 747.000000 69.000000
34.000000 234.000000 184.000000
40.000000 144.000000 25.000000
59.000000 761.000000 36.000000
13.000000 122.000000 58.000000
33.000000 837.000000 189.000000
32.000000 303.000000 38.000000
58.000000 968.000000 43.000000
174.000000 925.000000 122.000000
152.000000 37.000000 191.000000
30.000000 203.000000 35.000000
34.000000 343.000000 185.000000
172.000000 40.000000 140.000000
52.000000 381.000000 25.000000
206.000000 552.000000 94.000000
208.000000 475.000000 112.000000
19.000000 428.000000 167.000000
70.000000 560.000000 24.000000
82.000000 610.000000 216.000000
79.000000 762.000000 218.000000
144.000000 41.000000 10.000000
43.000000 652.000000 196.000000
122.000000 500.000000 16.000000
158.000000 949.000000 217.000000
157.000000 311.000000 24.000000
94.000000 295.000000 212.000000
110.000000 615.000000 19.000000
81.000000 18.000000 2.000000
160.000000 4.000000 32.000000
162.000000 864.000000 212.000000
183.000000 457.000000 48.000000
16.000000 32.000000 50.000000
94.000000 354.000000 10.000000
43.000000 32.000000 185.000000
32.000000 828.000000 62.000000
194.000000 705.000000 68.000000
191.000000 411.000000 58.000000
144.000000 388.000000 19.000000
5.000000 19.000000 130.000000
185.000000 790.000000 191.000000
176.000000 965.000000 155.000000
201.000000 608.000000 80.000000
150.000000 820.000000 217.000000
177.000000 110.000000 173.000000
19.000000 729.000000 165.000000
15.000000 533.000000 76.000000
185.000000 666.000000 187.000000
6.000000 103.000000 136.000000
81.000000 888.000000 30.000000
185.000000 524.000000 52.000000
208.000000 731.000000 144.000000
199.000000 232.000000 148.000000
49.000000 968.000000 102.000000
190.000000 144.000000 54.000000
195.000000 497.000000 169.000000
206.000000 302.000000 107.000000
156.000000 556.000000 206.000000
8.000000 536.000000 135.000000
14.000000 759.000000 92.000000
88.000000 513.000000 217.000000
37.000000 58.000000 25.000000
143.000000 231.000000 203.000000
30.000000 693.000000 57.000000
206.000000 234.000000 108.000000
205.000000 570.000000 151.000000
24.000000 306.000000 174.000000
2.000000 57.000000 92.000000
170.000000 969.000000 46.000000
45.000000 556.000000 196.000000
144.000000 694.000000 27.000000
191.000000 345.000000 59.000000
199.000000 301.000000 151.000000
89.000000 199.000000 208.000000
157.000000 339.000000 199.000000
204.000000 90.000000 101.000000
97.000000 389.000000 215.000000
165.000000 605.000000 202.000000
8.000000 387.000000 82.000000
207.000000 437.000000 122.000000
31.000000 747.000000 59.000000
106.000000 434.000000 12.000000
203.000000 850.000000 168.000000
52.000000 266.000000 197.000000
121.000000 154.000000 205.000000
25.000000 155.000000 171.000000
12.000000 277.000000 65.000000
37.000000 598.000000 46.000000
11.000000 844.000000 137.000000
117.000000 761.000000 223.000000
202.000000 272.000000 84.000000
207.000000 684.000000 97.000000
187.000000 270.000000 169.000000
80.000000 930.000000 223.000000
205.000000 337.000000 93.000000
162.000000 125.000000 23.000000
126.000000 625.000000 218.000000
207.000000 925.000000 159.000000
145.000000 302.000000 204.000000
196.000000 424.000000 164.000000
42.000000 872.000000 198.000000
131.000000 353.000000 14.000000
102.000000 578.000000 18.000000
4.000000 433.000000 115.000000
204.000000 160.000000 125.000000
2.000000 134.000000 92.000000
210.000000 980.000000 153.000000
4.000000 244.000000 134.000000
204.000000 805.000000 163.000000
88.000000 49.000000 66.000000
206.000000 408.000000 99.000000
195.000000 720.000000 177.000000
81.000000 311.000000 11.000000
146.000000 751.000000 29.000000
67.000000 76.000000 8.000000
9.000000 372.000000 147.000000
23.000000 632.000000 173.000000
207.000000 369.000000 116.000000
8.000000 599.000000 110.000000
207.000000 964.000000 97.000000
52.000000 179.000000 19.000000
12.000000 953.000000 121.000000
93.000000 934.000000 28.000000
138.000000 282.000000 14.000000
26.000000 953.000000 179.000000
111.000000 788.000000 23.000000
115.000000 161.000000 6.000000
59.000000 680.000000 32.000000
161.000000 266.000000 194.000000
110.000000 984.000000 209.000000
210.000000 801.000000 115.000000
92.000000 870.000000 224.000000
99.000000 22.000000 178.000000
23.000000 102.000000 167.000000
81.000000 249.000000 9.000000
22.000000 594.000000 170.000000
109.000000 238.000000 211.000000
174.000000 34.000000 70.000000
148.000000 242.000000 17.000000
110.000000 38.000000 1.000000
199.000000 476.000000 73.000000
81.000000 837.000000 28.000000
208.000000 621.000000 134.000000
141.000000 967.000000 144.000000
65.000000 48.000000 104.000000
87.000000 724.000000 24.000000
9.000000 576.000000 137.000000
58.000000 480.000000 26.000000
208.000000 509.000000 120.000000
184.000000 378.000000 49.000000
174.000000 979.000000 209.000000
52.000000 387.000000 200.000000
18.000000 646.000000 74.000000
197.000000 64.000000 143.000000
211.000000 865.000000 136.000000
59.000000 976.000000 188.000000
15.000000 970.000000 151.000000
148.000000 938.000000 33.000000
18.000000 210.000000 165.000000
194.000000 388.000000 166.000000
89.000000 191.000000 6.000000
19.000000 35.000000 160.000000
168.000000 151.000000 183.000000
20.000000 981.000000 89.000000
17.000000 576.000000 74.000000
180.000000 27.000000 103.000000
184.000000 904.000000 196.000000
40.000000 943.000000 58.000000
4.000000 71.000000 124.000000
167.000000 969.000000 81.000000
85.000000 328.000000 211.000000
172.000000 490.000000 195.000000
11.000000 177.000000 148.000000
49.000000 248.000000 22.000000
194.000000 180.000000 156.000000
94.000000 440.000000 216.000000
105.000000 286.000000 8.000000
41.000000 427.000000 193.000000
50.000000 890.000000 46.000000
199.000000 600.000000 166.000000
127.000000 723.000000 23.000000
